ply
format ascii 1.0
element vertex 1190
property float x
property float y
property float z
property float nx
property float ny
property float nz
property uchar red
property uchar green
property uchar blue
end_header
-3.88285 1.65594 -4.92167 0 0 0 255 0 0
-3.93877 1.67533 -5.00227 0 0 0 255 0 0
-3.9947 1.69472 -5.08287 0 0 0 255 0 0
-4.05062 1.71412 -5.16347 0 0 0 255 0 0
-4.10655 1.73351 -5.24407 0 0 0 255 0 0
-4.16247 1.7529 -5.32467 0 0 0 255 0 0
-4.2184 1.7723 -5.40527 0 0 0 255 0 0
-4.27432 1.79169 -5.48587 0 0 0 255 0 0
-4.33024 1.81108 -5.56647 0 0 0 255 0 0
-4.38617 1.83047 -5.64707 0 0 0 255 0 0
-4.44209 1.84987 -5.72767 0 0 0 255 0 0
-4.49802 1.86926 -5.80827 0 0 0 255 0 0
-4.55394 1.88865 -5.88887 0 0 0 255 0 0
-4.60987 1.90804 -5.96947 0 0 0 255 0 0
-4.66579 1.92744 -6.05007 0 0 0 255 0 0
-4.72171 1.94683 -6.13068 0 0 0 255 0 0
-4.77764 1.96622 -6.21128 0 0 0 255 0 0
-4.83356 1.98562 -6.29188 0 0 0 255 0 0
-4.88949 2.00501 -6.37248 0 0 0 255 0 0
-4.94541 2.0244 -6.45308 0 0 0 255 0 0
-5.00134 2.04379 -6.53368 0 0 0 255 0 0
-5.05726 2.06319 -6.61428 0 0 0 255 0 0
-5.11318 2.08258 -6.69488 0 0 0 255 0 0
-5.16911 2.10197 -6.77548 0 0 0 255 0 0
-5.22503 2.12137 -6.85608 0 0 0 255 0 0
-5.28096 2.14076 -6.93668 0 0 0 255 0 0
-3.88943 -3.63154 10.2468 0 0 0 255 0 0
-3.85703 -3.59412 10.1599 0 0 0 255 0 0
-3.82463 -3.55669 10.073 0 0 0 255 0 0
-3.79222 -3.51927 9.98615 0 0 0 255 0 0
-3.75982 -3.48185 9.89926 0 0 0 255 0 0
-3.72742 -3.44443 9.81237 0 0 0 255 0 0
-3.69501 -3.40701 9.72548 0 0 0 255 0 0
-3.66261 -3.36958 9.63859 0 0 0 255 0 0
-3.63021 -3.33216 9.5517 0 0 0 255 0 0
-3.59781 -3.29474 9.46482 0 0 0 255 0 0
-3.5654 -3.25732 9.37793 0 0 0 255 0 0
-3.533 -3.21989 9.29104 0 0 0 255 0 0
-3.5006 -3.18247 9.20415 0 0 0 255 0 0
-3.4682 -3.14505 9.11726 0 0 0 255 0 0
-3.43579 -3.10763 9.03037 0 0 0 255 0 0
-3.40339 -3.07021 8.94348 0 0 0 255 0 0
-3.37099 -3.03278 8.85659 0 0 0 255 0 0
-3.33859 -2.99536 8.7697 0 0 0 255 0 0
-3.30618 -2.95794 8.68281 0 0 0 255 0 0
-3.27378 -2.92052 8.59592 0 0 0 255 0 0
-3.24138 -2.88309 8.50904 0 0 0 255 0 0
-3.20898 -2.84567 8.42215 0 0 0 255 0 0
-3.17657 -2.80825 8.33526 0 0 0 255 0 0
-3.14417 -2.77083 8.24837 0 0 0 255 0 0
-3.11177 -2.73341 8.16148 0 0 0 255 0 0
-3.07937 -2.69598 8.07459 0 0 0 255 0 0
-3.04696 -2.65856 7.9877 0 0 0 255 0 0
-3.01456 -2.62114 7.90081 0 0 0 255 0 0
-2.98216 -2.58372 7.81393 0 0 0 255 0 0
-2.94976 -2.5463 7.72704 0 0 0 255 0 0
-2.91735 -2.50887 7.64015 0 0 0 255 0 0
-2.88495 -2.47145 7.55326 0 0 0 255 0 0
-2.85255 -2.43403 7.46637 0 0 0 255 0 0
-2.82015 -2.39661 7.37948 0 0 0 255 0 0
-2.78774 -2.35919 7.29259 0 0 0 255 0 0
-2.75534 -2.32176 7.2057 0 0 0 255 0 0
-2.72294 -2.28434 7.11882 0 0 0 255 0 0
-2.69054 -2.24692 7.03193 0 0 0 255 0 0
-2.65813 -2.2095 6.94504 0 0 0 255 0 0
-2.62573 -2.17208 6.85815 0 0 0 255 0 0
-2.59333 -2.13465 6.77126 0 0 0 255 0 0
-2.56093 -2.09723 6.68437 0 0 0 255 0 0
-2.52852 -2.05981 6.59748 0 0 0 255 0 0
-2.49612 -2.02239 6.51059 0 0 0 255 0 0
-2.46372 -1.98497 6.4237 0 0 0 255 0 0
-2.43132 -1.94754 6.33682 0 0 0 255 0 0
-2.39891 -1.91012 6.24993 0 0 0 255 0 0
-2.36651 -1.8727 6.16304 0 0 0 255 0 0
-2.33411 -1.83528 6.07615 0 0 0 255 0 0
-2.30171 -1.79786 5.98926 0 0 0 255 0 0
-2.2693 -1.76043 5.90237 0 0 0 255 0 0
-2.2369 -1.72301 5.81548 0 0 0 255 0 0
-2.2045 -1.68559 5.72859 0 0 0 255 0 0
-2.1721 -1.64817 5.64171 0 0 0 255 0 0
-2.1397 -1.61075 5.55482 0 0 0 255 0 0
-2.10729 -1.57332 5.46793 0 0 0 255 0 0
-2.07489 -1.5359 5.38104 0 0 0 255 0 0
-2.04249 -1.49848 5.29415 0 0 0 255 0 0
-2.01009 -1.46106 5.20726 0 0 0 255 0 0
-1.97768 -1.42364 5.12037 0 0 0 255 0 0
-1.94528 -1.38621 5.03348 0 0 0 255 0 0
-1.91288 -1.34879 4.9466 0 0 0 255 0 0
-1.88048 -1.31137 4.85971 0 0 0 255 0 0
-1.84807 -1.27395 4.77282 0 0 0 255 0 0
-1.81567 -1.23653 4.68593 0 0 0 255 0 0
-1.78327 -1.1991 4.59904 0 0 0 255 0 0
-1.75087 -1.16168 4.51215 0 0 0 255 0 0
-1.71846 -1.12426 4.42526 0 0 0 255 0 0
-1.68606 -1.08684 4.33837 0 0 0 255 0 0
-1.65366 -1.04942 4.25149 0 0 0 255 0 0
-1.62126 -1.01199 4.1646 0 0 0 255 0 0
-1.58885 -0.974572 4.07771 0 0 0 255 0 0
-1.55645 -0.93715 3.99082 0 0 0 255 0 0
-1.52405 -0.899728 3.90393 0 0 0 255 0 0
-1.49165 -0.862306 3.81704 0 0 0 255 0 0
-1.45924 -0.824884 3.73015 0 0 0 255 0 0
-1.42684 -0.787462 3.64326 0 0 0 255 0 0
-1.39444 -0.75004 3.55638 0 0 0 255 0 0
-1.36204 -0.712618 3.46949 0 0 0 255 0 0
-1.32963 -0.675196 3.3826 0 0 0 255 0 0
-1.29723 -0.637774 3.29571 0 0 0 255 0 0
-1.26483 -0.600352 3.20882 0 0 0 255 0 0
-1.23243 -0.56293 3.12193 0 0 0 255 0 0
-1.20002 -0.525508 3.03504 0 0 0 255 0 0
-1.16762 -0.488086 2.94815 0 0 0 255 0 0
-1.13522 -0.450664 2.86127 0 0 0 255 0 0
-1.10282 -0.413242 2.77438 0 0 0 255 0 0
-1.07041 -0.37582 2.68749 0 0 0 255 0 0
-1.03801 -0.338398 2.6006 0 0 0 255 0 0
-1.00561 -0.300976 2.51371 0 0 0 255 0 0
-0.973206 -0.263554 2.42682 0 0 0 255 0 0
-0.940804 -0.226132 2.33993 0 0 0 255 0 0
-0.908402 -0.18871 2.25304 0 0 0 255 0 0
-0.875999 -0.151288 2.16615 0 0 0 255 0 0
-0.843597 -0.113865 2.07927 0 0 0 255 0 0
-0.811194 -0.0764434 1.99238 0 0 0 255 0 0
-0.778792 -0.0390214 1.90549 0 0 0 255 0 0
-0.746389 -0.00159933 1.8186 0 0 0 255 0 0
-0.713987 0.0358227 1.73171 0 0 0 255 0 0
-0.681584 0.0732448 1.64482 0 0 0 255 0 0
-0.649182 0.110667 1.55793 0 0 0 255 0 0
-0.616779 0.148089 1.47104 0 0 0 255 0 0
-0.584377 0.185511 1.38415 0 0 0 255 0 0
-0.551974 0.222933 1.29727 0 0 0 255 0 0
-0.519572 0.260355 1.21038 0 0 0 255 0 0
-0.487169 0.297777 1.12349 0 0 0 255 0 0
-0.454767 0.335199 1.0366 0 0 0 255 0 0
-0.422364 0.372621 0.949711 0 0 0 255 0 0
-0.389962 0.410043 0.862822 0 0 0 255 0 0
-0.357559 0.447465 0.775933 0 0 0 255 0 0
-0.325157 0.484887 0.689044 0 0 0 255 0 0
-0.292754 0.522309 0.602155 0 0 0 255 0 0
-0.260352 0.559731 0.515267 0 0 0 255 0 0
-0.227949 0.597153 0.428378 0 0 0 255 0 0
-0.195547 0.634576 0.341489 0 0 0 255 0 0
-0.163144 0.671998 0.2546 0 0 0 255 0 0
-0.130742 0.70942 0.167711 0 0 0 255 0 0
-0.0983394 0.746842 0.0808222 0 0 0 255 0 0
-0.0659369 0.784264 -0.00606662 0 0 0 255 0 0
-0.0335345 0.821686 -0.0929555 0 0 0 255 0 0
-0.00113197 0.859108 -0.179844 0 0 0 255 0 0
0.0312705 0.89653 -0.266733 0 0 0 255 0 0
0.0636729 0.933952 -0.353622 0 0 0 255 0 0
0.0960754 0.971374 -0.440511 0 0 0 255 0 0
0.128478 1.0088 -0.527399 0 0 0 255 0 0
0.16088 1.04622 -0.614288 0 0 0 255 0 0
0.193283 1.08364 -0.701177 0 0 0 255 0 0
0.225685 1.12106 -0.788066 0 0 0 255 0 0
0.258088 1.15848 -0.874954 0 0 0 255 0 0
0.29049 1.19591 -0.961843 0 0 0 255 0 0
0.322893 1.23333 -1.04873 0 0 0 255 0 0
0.355295 1.27075 -1.13562 0 0 0 255 0 0
0.387697 1.30817 -1.22251 0 0 0 255 0 0
0.4201 1.34559 -1.3094 0 0 0 255 0 0
0.452502 1.38302 -1.39629 0 0 0 255 0 0
0.484905 1.42044 -1.48318 0 0 0 255 0 0
0.517307 1.45786 -1.57006 0 0 0 255 0 0
0.54971 1.49528 -1.65695 0 0 0 255 0 0
0.582112 1.5327 -1.74384 0 0 0 255 0 0
0.614515 1.57013 -1.83073 0 0 0 255 0 0
0.646917 1.60755 -1.91762 0 0 0 255 0 0
0.67932 1.64497 -2.00451 0 0 0 255 0 0
0.711722 1.68239 -2.0914 0 0 0 255 0 0
0.744124 1.71981 -2.17829 0 0 0 255 0 0
0.776527 1.75724 -2.26517 0 0 0 255 0 0
0.808929 1.79466 -2.35206 0 0 0 255 0 0
0.841332 1.83208 -2.43895 0 0 0 255 0 0
0.873734 1.8695 -2.52584 0 0 0 255 0 0
0.906137 1.90692 -2.61273 0 0 0 255 0 0
0.938539 1.94435 -2.69962 0 0 0 255 0 0
0.970942 1.98177 -2.78651 0 0 0 255 0 0
1.00334 2.01919 -2.8734 0 0 0 255 0 0
1.03575 2.05661 -2.96028 0 0 0 255 0 0
1.06815 2.09403 -3.04717 0 0 0 255 0 0
1.10055 2.13146 -3.13406 0 0 0 255 0 0
1.13295 2.16888 -3.22095 0 0 0 255 0 0
1.16536 2.2063 -3.30784 0 0 0 255 0 0
1.19776 2.24372 -3.39473 0 0 0 255 0 0
1.23016 2.28114 -3.48162 0 0 0 255 0 0
1.26256 2.31857 -3.56851 0 0 0 255 0 0
1.29497 2.35599 -3.65539 0 0 0 255 0 0
1.32737 2.39341 -3.74228 0 0 0 255 0 0
1.35977 2.43083 -3.82917 0 0 0 255 0 0
1.39217 2.46825 -3.91606 0 0 0 255 0 0
1.42458 2.50568 -4.00295 0 0 0 255 0 0
1.45698 2.5431 -4.08984 0 0 0 255 0 0
1.48938 2.58052 -4.17673 0 0 0 255 0 0
1.52178 2.61794 -4.26362 0 0 0 255 0 0
1.55419 2.65536 -4.3505 0 0 0 255 0 0
1.58659 2.69279 -4.43739 0 0 0 255 0 0
1.61899 2.73021 -4.52428 0 0 0 255 0 0
1.65139 2.76763 -4.61117 0 0 0 255 0 0
1.6838 2.80505 -4.69806 0 0 0 255 0 0
1.7162 2.84247 -4.78495 0 0 0 255 0 0
1.7486 2.8799 -4.87184 0 0 0 255 0 0
1.781 2.91732 -4.95873 0 0 0 255 0 0
1.81341 2.95474 -5.04561 0 0 0 255 0 0
1.84581 2.99216 -5.1325 0 0 0 255 0 0
1.87821 3.02958 -5.21939 0 0 0 255 0 0
1.91061 3.06701 -5.30628 0 0 0 255 0 0
1.94302 3.10443 -5.39317 0 0 0 255 0 0
1.97542 3.14185 -5.48006 0 0 0 255 0 0
2.00782 3.17927 -5.56695 0 0 0 255 0 0
2.04022 3.21669 -5.65384 0 0 0 255 0 0
2.07263 3.25412 -5.74073 0 0 0 255 0 0
2.10503 3.29154 -5.82762 0 0 0 255 0 0
2.13743 3.32896 -5.9145 0 0 0 255 0 0
2.16983 3.36638 -6.00139 0 0 0 255 0 0
2.20224 3.40381 -6.08828 0 0 0 255 0 0
2.23464 3.44123 -6.17517 0 0 0 255 0 0
2.26704 3.47865 -6.26206 0 0 0 255 0 0
2.29944 3.51607 -6.34895 0 0 0 255 0 0
2.33185 3.55349 -6.43584 0 0 0 255 0 0
2.36425 3.59092 -6.52273 0 0 0 255 0 0
2.39665 3.62834 -6.60962 0 0 0 255 0 0
2.42905 3.66576 -6.69651 0 0 0 255 0 0
2.46146 3.70318 -6.7834 0 0 0 255 0 0
2.49386 3.74061 -6.87029 0 0 0 255 0 0
2.52626 3.77803 -6.95717 0 0 0 255 0 0
2.55866 3.81545 -7.04406 0 0 0 255 0 0
-0.27709 0.478602 0.432249 0 0 0 255 255 0
-2.4716 -2.51705 10.6021 0 0 0 0 255 0
-2.44716 -2.49012 10.509 0 0 0 0 255 0
-2.42271 -2.46319 10.4158 0 0 0 0 255 0
-2.39827 -2.43627 10.3227 0 0 0 0 255 0
-2.37382 -2.40934 10.2295 0 0 0 0 255 0
-2.34938 -2.38242 10.1364 0 0 0 0 255 0
-2.32493 -2.35549 10.0432 0 0 0 0 255 0
-2.30049 -2.32857 9.95006 0 0 0 0 255 0
-2.27604 -2.30164 9.8569 0 0 0 0 255 0
-2.2516 -2.27471 9.76375 0 0 0 0 255 0
-2.22715 -2.24779 9.6706 0 0 0 0 255 0
-2.20271 -2.22086 9.57744 0 0 0 0 255 0
-2.17826 -2.19394 9.48429 0 0 0 0 255 0
-2.15382 -2.16701 9.39114 0 0 0 0 255 0
-2.12937 -2.14009 9.29798 0 0 0 0 255 0
-2.10493 -2.11316 9.20483 0 0 0 0 255 0
-2.08048 -2.08623 9.11168 0 0 0 0 255 0
-2.05604 -2.05931 9.01852 0 0 0 0 255 0
-2.03159 -2.03238 8.92537 0 0 0 0 255 0
-2.00715 -2.00546 8.83222 0 0 0 0 255 0
-1.9827 -1.97853 8.73906 0 0 0 0 255 0
-1.95826 -1.95161 8.64591 0 0 0 0 255 0
-1.93382 -1.92468 8.55276 0 0 0 0 255 0
-1.90937 -1.89775 8.45961 0 0 0 0 255 0
-1.88493 -1.87083 8.36645 0 0 0 0 255 0
-1.86048 -1.8439 8.2733 0 0 0 0 255 0
-1.83604 -1.81698 8.18015 0 0 0 0 255 0
-1.81159 -1.79005 8.087 0 0 0 0 255 0
-1.78715 -1.76313 7.99384 0 0 0 0 255 0
-1.7627 -1.7362 7.90069 0 0 0 0 255 0
-1.73826 -1.70928 7.80754 0 0 0 0 255 0
-1.71381 -1.68235 7.71438 0 0 0 0 255 0
-1.68937 -1.65542 7.62123 0 0 0 0 255 0
-1.66492 -1.6285 7.52808 0 0 0 0 255 0
-1.64048 -1.60157 7.43493 0 0 0 0 255 0
-1.61603 -1.57465 7.34177 0 0 0 0 255 0
-1.59159 -1.54772 7.24862 0 0 0 0 255 0
-1.56714 -1.5208 7.15547 0 0 0 0 255 0
-1.5427 -1.49387 7.06231 0 0 0 0 255 0
-1.51826 -1.46695 6.96916 0 0 0 0 255 0
-1.49381 -1.44002 6.87601 0 0 0 0 255 0
-1.46937 -1.41309 6.78286 0 0 0 0 255 0
-1.44492 -1.38617 6.6897 0 0 0 0 255 0
-1.42048 -1.35924 6.59655 0 0 0 0 255 0
-1.39603 -1.33232 6.5034 0 0 0 0 255 0
-1.37159 -1.30539 6.41024 0 0 0 0 255 0
-1.34714 -1.27847 6.31709 0 0 0 0 255 0
-1.3227 -1.25154 6.22394 0 0 0 0 255 0
-1.29825 -1.22462 6.13079 0 0 0 0 255 0
-1.27381 -1.19769 6.03763 0 0 0 0 255 0
-1.24936 -1.17076 5.94448 0 0 0 0 255 0
-1.22492 -1.14384 5.85133 0 0 0 0 255 0
-1.20047 -1.11691 5.75817 0 0 0 0 255 0
-1.17603 -1.08999 5.66502 0 0 0 0 255 0
-1.15159 -1.06306 5.57187 0 0 0 0 255 0
-1.12714 -1.03614 5.47872 0 0 0 0 255 0
-1.1027 -1.00921 5.38556 0 0 0 0 255 0
-1.07825 -0.982285 5.29241 0 0 0 0 255 0
-1.05381 -0.95536 5.19926 0 0 0 0 255 0
-1.02936 -0.928434 5.1061 0 0 0 0 255 0
-1.00492 -0.901508 5.01295 0 0 0 0 255 0
-0.980472 -0.874583 4.9198 0 0 0 0 255 0
-0.956028 -0.847657 4.82665 0 0 0 0 255 0
-0.931583 -0.820732 4.73349 0 0 0 0 255 0
-0.907138 -0.793806 4.64034 0 0 0 0 255 0
-0.882694 -0.766881 4.54719 0 0 0 0 255 0
-0.858249 -0.739955 4.45403 0 0 0 0 255 0
-0.833804 -0.713029 4.36088 0 0 0 0 255 0
-0.809359 -0.686104 4.26773 0 0 0 0 255 0
-0.784915 -0.659178 4.17458 0 0 0 0 255 0
-0.76047 -0.632253 4.08142 0 0 0 0 255 0
-0.736025 -0.605327 3.98827 0 0 0 0 255 0
-0.711581 -0.578401 3.89512 0 0 0 0 255 0
-0.687136 -0.551476 3.80196 0 0 0 0 255 0
-0.662691 -0.52455 3.70881 0 0 0 0 255 0
-0.638247 -0.497625 3.61566 0 0 0 0 255 0
-0.613802 -0.470699 3.52251 0 0 0 0 255 0
-0.589357 -0.443774 3.42935 0 0 0 0 255 0
-0.564913 -0.416848 3.3362 0 0 0 0 255 0
-0.540468 -0.389922 3.24305 0 0 0 0 255 0
-0.516023 -0.362997 3.14989 0 0 0 0 255 0
-0.491578 -0.336071 3.05674 0 0 0 0 255 0
-0.467134 -0.309146 2.96359 0 0 0 0 255 0
-0.442689 -0.28222 2.87044 0 0 0 0 255 0
-0.418244 -0.255294 2.77728 0 0 0 0 255 0
-0.3938 -0.228369 2.68413 0 0 0 0 255 0
-0.369355 -0.201443 2.59098 0 0 0 0 255 0
-0.34491 -0.174518 2.49782 0 0 0 0 255 0
-0.320465 -0.147592 2.40467 0 0 0 0 255 0
-0.296021 -0.120666 2.31152 0 0 0 0 255 0
-0.271576 -0.0937407 2.21836 0 0 0 0 255 0
-0.247131 -0.0668151 2.12521 0 0 0 0 255 0
-0.222686 -0.0398895 2.03206 0 0 0 0 255 0
-0.198242 -0.0129639 1.93891 0 0 0 0 255 0
-0.173797 0.0139618 1.84575 0 0 0 0 255 0
-0.149352 0.0408874 1.7526 0 0 0 0 255 0
-0.124908 0.067813 1.65945 0 0 0 0 255 0
-0.100463 0.0947386 1.56629 0 0 0 0 255 0
-0.0760182 0.121664 1.47314 0 0 0 0 255 0
-0.0515735 0.14859 1.37999 0 0 0 0 255 0
-0.0271288 0.175515 1.28684 0 0 0 0 255 0
-0.00268405 0.202441 1.19368 0 0 0 0 255 0
0.0217607 0.229367 1.10053 0 0 0 0 255 0
0.0462054 0.256292 1.00738 0 0 0 0 255 0
0.0706501 0.283218 0.914223 0 0 0 0 255 0
0.0950948 0.310143 0.82107 0 0 0 0 255 0
0.11954 0.337069 0.727918 0 0 0 0 255 0
0.143984 0.363995 0.634765 0 0 0 0 255 0
0.168429 0.39092 0.541612 0 0 0 0 255 0
0.192874 0.417846 0.448459 0 0 0 0 255 0
0.217318 0.444771 0.355306 0 0 0 0 255 0
0.241763 0.471697 0.262153 0 0 0 0 255 0
0.266208 0.498623 0.169 0 0 0 0 255 0
0.290653 0.525548 0.0758469 0 0 0 0 255 0
0.315097 0.552474 -0.0173061 0 0 0 0 255 0
0.339542 0.5794 -0.110459 0 0 0 0 255 0
0.363987 0.606325 -0.203612 0 0 0 0 255 0
0.388431 0.633251 -0.296765 0 0 0 0 255 0
0.412876 0.660176 -0.389918 0 0 0 0 255 0
0.437321 0.687102 -0.483071 0 0 0 0 255 0
0.461766 0.714028 -0.576224 0 0 0 0 255 0
0.48621 0.740953 -0.669377 0 0 0 0 255 0
0.510655 0.767879 -0.76253 0 0 0 0 255 0
0.5351 0.794804 -0.855682 0 0 0 0 255 0
0.559544 0.82173 -0.948835 0 0 0 0 255 0
0.583989 0.848655 -1.04199 0 0 0 0 255 0
0.608434 0.875581 -1.13514 0 0 0 0 255 0
0.632878 0.902507 -1.22829 0 0 0 0 255 0
0.657323 0.929432 -1.32145 0 0 0 0 255 0
0.681768 0.956358 -1.4146 0 0 0 0 255 0
0.706213 0.983283 -1.50775 0 0 0 0 255 0
0.730657 1.01021 -1.60091 0 0 0 0 255 0
0.755102 1.03713 -1.69406 0 0 0 0 255 0
0.779547 1.06406 -1.78721 0 0 0 0 255 0
0.803991 1.09099 -1.88036 0 0 0 0 255 0
0.828436 1.11791 -1.97352 0 0 0 0 255 0
0.852881 1.14484 -2.06667 0 0 0 0 255 0
0.877325 1.17176 -2.15982 0 0 0 0 255 0
0.90177 1.19869 -2.25298 0 0 0 0 255 0
0.926215 1.22561 -2.34613 0 0 0 0 255 0
0.95066 1.25254 -2.43928 0 0 0 0 255 0
0.975104 1.27946 -2.53243 0 0 0 0 255 0
0.999549 1.30639 -2.62559 0 0 0 0 255 0
1.02399 1.33332 -2.71874 0 0 0 0 255 0
1.04844 1.36024 -2.81189 0 0 0 0 255 0
1.07288 1.38717 -2.90505 0 0 0 0 255 0
1.09733 1.41409 -2.9982 0 0 0 0 255 0
1.12177 1.44102 -3.09135 0 0 0 0 255 0
1.14622 1.46794 -3.1845 0 0 0 0 255 0
1.17066 1.49487 -3.27766 0 0 0 0 255 0
1.19511 1.5218 -3.37081 0 0 0 0 255 0
1.21955 1.54872 -3.46396 0 0 0 0 255 0
1.244 1.57565 -3.55712 0 0 0 0 255 0
1.26844 1.60257 -3.65027 0 0 0 0 255 0
1.29289 1.6295 -3.74342 0 0 0 0 255 0
1.31733 1.65642 -3.83657 0 0 0 0 255 0
1.34177 1.68335 -3.92973 0 0 0 0 255 0
1.36622 1.71027 -4.02288 0 0 0 0 255 0
1.39066 1.7372 -4.11603 0 0 0 0 255 0
1.41511 1.76413 -4.20919 0 0 0 0 255 0
1.43955 1.79105 -4.30234 0 0 0 0 255 0
1.464 1.81798 -4.39549 0 0 0 0 255 0
1.48844 1.8449 -4.48864 0 0 0 0 255 0
1.51289 1.87183 -4.5818 0 0 0 0 255 0
1.53733 1.89875 -4.67495 0 0 0 0 255 0
1.56178 1.92568 -4.7681 0 0 0 0 255 0
1.58622 1.9526 -4.86125 0 0 0 0 255 0
1.61067 1.97953 -4.95441 0 0 0 0 255 0
1.63511 2.00646 -5.04756 0 0 0 0 255 0
1.65956 2.03338 -5.14071 0 0 0 0 255 0
1.684 2.06031 -5.23387 0 0 0 0 255 0
1.70844 2.08723 -5.32702 0 0 0 0 255 0
1.73289 2.11416 -5.42017 0 0 0 0 255 0
1.75733 2.14108 -5.51332 0 0 0 0 255 0
1.78178 2.16801 -5.60648 0 0 0 0 255 0
1.80622 2.19493 -5.69963 0 0 0 0 255 0
1.83067 2.22186 -5.79278 0 0 0 0 255 0
1.85511 2.24879 -5.88594 0 0 0 0 255 0
1.87956 2.27571 -5.97909 0 0 0 0 255 0
1.904 2.30264 -6.07224 0 0 0 0 255 0
1.92845 2.32956 -6.16539 0 0 0 0 255 0
1.95289 2.35649 -6.25855 0 0 0 0 255 0
1.97734 2.38341 -6.3517 0 0 0 0 255 0
2.00178 2.41034 -6.44485 0 0 0 0 255 0
2.02623 2.43727 -6.53801 0 0 0 0 255 0
2.05067 2.46419 -6.63116 0 0 0 0 255 0
2.07512 2.49112 -6.72431 0 0 0 0 255 0
2.09956 2.51804 -6.81747 0 0 0 0 255 0
2.12401 2.54497 -6.91062 0 0 0 0 255 0
2.14845 2.57189 -7.00377 0 0 0 0 255 0
2.1729 2.59882 -7.09693 0 0 0 0 255 0
2.19734 2.62575 -7.19008 0 0 0 0 255 0
2.22178 2.65267 -7.28323 0 0 0 0 255 0
2.24623 2.6796 -7.37639 0 0 0 0 255 0
2.27067 2.70652 -7.46954 0 0 0 0 255 0
2.29512 2.73345 -7.56269 0 0 0 0 255 0
2.31956 2.76037 -7.65585 0 0 0 0 255 0
2.34401 2.7873 -7.749 0 0 0 0 255 0
2.36845 2.81423 -7.84215 0 0 0 0 255 0
2.3929 2.84115 -7.93531 0 0 0 0 255 0
2.73924 -1.38022 10.5274 0 0 0 0 255 0
2.71602 -1.36401 10.4315 0 0 0 0 255 0
2.69279 -1.34779 10.3356 0 0 0 0 255 0
2.66956 -1.33158 10.2397 0 0 0 0 255 0
2.64634 -1.31537 10.1438 0 0 0 0 255 0
2.62311 -1.29915 10.0479 0 0 0 0 255 0
2.59988 -1.28294 9.95196 0 0 0 0 255 0
2.57666 -1.26673 9.85606 0 0 0 0 255 0
2.55343 -1.25051 9.76016 0 0 0 0 255 0
2.5302 -1.2343 9.66425 0 0 0 0 255 0
2.50698 -1.21809 9.56835 0 0 0 0 255 0
2.48375 -1.20188 9.47244 0 0 0 0 255 0
2.46053 -1.18566 9.37654 0 0 0 0 255 0
2.4373 -1.16945 9.28063 0 0 0 0 255 0
2.41407 -1.15324 9.18473 0 0 0 0 255 0
2.39085 -1.13702 9.08882 0 0 0 0 255 0
2.36762 -1.12081 8.99292 0 0 0 0 255 0
2.34439 -1.1046 8.89701 0 0 0 0 255 0
2.32117 -1.08838 8.80111 0 0 0 0 255 0
2.29794 -1.07217 8.7052 0 0 0 0 255 0
2.27471 -1.05596 8.6093 0 0 0 0 255 0
2.25149 -1.03975 8.51339 0 0 0 0 255 0
2.22826 -1.02353 8.41749 0 0 0 0 255 0
2.20503 -1.00732 8.32158 0 0 0 0 255 0
2.18181 -0.991107 8.22568 0 0 0 0 255 0
2.15858 -0.974894 8.12977 0 0 0 0 255 0
2.13536 -0.958681 8.03387 0 0 0 0 255 0
2.11213 -0.942468 7.93797 0 0 0 0 255 0
2.0889 -0.926256 7.84206 0 0 0 0 255 0
2.06568 -0.910043 7.74616 0 0 0 0 255 0
2.04245 -0.89383 7.65025 0 0 0 0 255 0
2.01922 -0.877617 7.55435 0 0 0 0 255 0
1.996 -0.861404 7.45844 0 0 0 0 255 0
1.97277 -0.845191 7.36254 0 0 0 0 255 0
1.94954 -0.828978 7.26664 0 0 0 0 255 0
1.92632 -0.812765 7.17073 0 0 0 0 255 0
1.90309 -0.796552 7.07483 0 0 0 0 255 0
1.87987 -0.780339 6.97892 0 0 0 0 255 0
1.85664 -0.764126 6.88302 0 0 0 0 255 0
1.83341 -0.747913 6.78711 0 0 0 0 255 0
1.81019 -0.7317 6.69121 0 0 0 0 255 0
1.78696 -0.715487 6.5953 0 0 0 0 255 0
1.76373 -0.699275 6.4994 0 0 0 0 255 0
1.74051 -0.683062 6.4035 0 0 0 0 255 0
1.71728 -0.666849 6.30759 0 0 0 0 255 0
1.69405 -0.650636 6.21169 0 0 0 0 255 0
1.67083 -0.634423 6.11578 0 0 0 0 255 0
1.6476 -0.61821 6.01988 0 0 0 0 255 0
1.62438 -0.601997 5.92397 0 0 0 0 255 0
1.60115 -0.585784 5.82807 0 0 0 0 255 0
1.57792 -0.569571 5.73216 0 0 0 0 255 0
1.5547 -0.553358 5.63626 0 0 0 0 255 0
1.53147 -0.537145 5.54036 0 0 0 0 255 0
1.50824 -0.520932 5.44445 0 0 0 0 255 0
1.48502 -0.504719 5.34855 0 0 0 0 255 0
1.46179 -0.488507 5.25264 0 0 0 0 255 0
1.43856 -0.472294 5.15674 0 0 0 0 255 0
1.41534 -0.456081 5.06083 0 0 0 0 255 0
1.39211 -0.439868 4.96493 0 0 0 0 255 0
1.36889 -0.423655 4.86902 0 0 0 0 255 0
1.34566 -0.407442 4.77312 0 0 0 0 255 0
1.32243 -0.391229 4.67722 0 0 0 0 255 0
1.29921 -0.375016 4.58131 0 0 0 0 255 0
1.27598 -0.358803 4.48541 0 0 0 0 255 0
1.25275 -0.34259 4.3895 0 0 0 0 255 0
1.22953 -0.326377 4.2936 0 0 0 0 255 0
1.2063 -0.310164 4.19769 0 0 0 0 255 0
1.18307 -0.293951 4.10179 0 0 0 0 255 0
1.15985 -0.277739 4.00588 0 0 0 0 255 0
1.13662 -0.261526 3.90998 0 0 0 0 255 0
1.1134 -0.245313 3.81408 0 0 0 0 255 0
1.09017 -0.2291 3.71817 0 0 0 0 255 0
1.06694 -0.212887 3.62227 0 0 0 0 255 0
1.04372 -0.196674 3.52636 0 0 0 0 255 0
1.02049 -0.180461 3.43046 0 0 0 0 255 0
0.997264 -0.164248 3.33455 0 0 0 0 255 0
0.974037 -0.148035 3.23865 0 0 0 0 255 0
0.950811 -0.131822 3.14274 0 0 0 0 255 0
0.927585 -0.115609 3.04684 0 0 0 0 255 0
0.904358 -0.0993964 2.95094 0 0 0 0 255 0
0.881132 -0.0831834 2.85503 0 0 0 0 255 0
0.857905 -0.0669705 2.75913 0 0 0 0 255 0
0.834679 -0.0507575 2.66322 0 0 0 0 255 0
0.811453 -0.0345446 2.56732 0 0 0 0 255 0
0.788226 -0.0183316 2.47141 0 0 0 0 255 0
0.765 -0.00211869 2.37551 0 0 0 0 255 0
0.741773 0.0140943 2.2796 0 0 0 0 255 0
0.718547 0.0303072 2.1837 0 0 0 0 255 0
0.695321 0.0465201 2.0878 0 0 0 0 255 0
0.672094 0.0627331 1.99189 0 0 0 0 255 0
0.648868 0.078946 1.89599 0 0 0 0 255 0
0.625641 0.095159 1.80008 0 0 0 0 255 0
0.602415 0.111372 1.70418 0 0 0 0 255 0
0.579189 0.127585 1.60827 0 0 0 0 255 0
0.555962 0.143798 1.51237 0 0 0 0 255 0
0.532736 0.160011 1.41646 0 0 0 0 255 0
0.509509 0.176224 1.32056 0 0 0 0 255 0
0.486283 0.192437 1.22465 0 0 0 0 255 0
0.463057 0.20865 1.12875 0 0 0 0 255 0
0.43983 0.224863 1.03285 0 0 0 0 255 0
0.416604 0.241075 0.936941 0 0 0 0 255 0
0.393378 0.257288 0.841036 0 0 0 0 255 0
0.370151 0.273501 0.745132 0 0 0 0 255 0
0.346925 0.289714 0.649227 0 0 0 0 255 0
0.323698 0.305927 0.553323 0 0 0 0 255 0
0.300472 0.32214 0.457418 0 0 0 0 255 0
0.277246 0.338353 0.361514 0 0 0 0 255 0
0.254019 0.354566 0.265609 0 0 0 0 255 0
0.230793 0.370779 0.169705 0 0 0 0 255 0
0.207566 0.386992 0.0738001 0 0 0 0 255 0
0.18434 0.403205 -0.0221044 0 0 0 0 255 0
0.161114 0.419418 -0.118009 0 0 0 0 255 0
0.137887 0.435631 -0.213914 0 0 0 0 255 0
0.114661 0.451844 -0.309818 0 0 0 0 255 0
0.0914345 0.468057 -0.405723 0 0 0 0 255 0
0.0682081 0.48427 -0.501627 0 0 0 0 255 0
0.0449817 0.500483 -0.597532 0 0 0 0 255 0
0.0217553 0.516695 -0.693436 0 0 0 0 255 0
-0.0014711 0.532908 -0.789341 0 0 0 0 255 0
-0.0246975 0.549121 -0.885245 0 0 0 0 255 0
-0.0479239 0.565334 -0.98115 0 0 0 0 255 0
-0.0711503 0.581547 -1.07705 0 0 0 0 255 0
-0.0943766 0.59776 -1.17296 0 0 0 0 255 0
-0.117603 0.613973 -1.26886 0 0 0 0 255 0
-0.140829 0.630186 -1.36477 0 0 0 0 255 0
-0.164056 0.646399 -1.46067 0 0 0 0 255 0
-0.187282 0.662612 -1.55658 0 0 0 0 255 0
-0.210508 0.678825 -1.65248 0 0 0 0 255 0
-0.233735 0.695038 -1.74839 0 0 0 0 255 0
-0.256961 0.711251 -1.84429 0 0 0 0 255 0
-0.280188 0.727464 -1.94019 0 0 0 0 255 0
-0.303414 0.743676 -2.0361 0 0 0 0 255 0
-0.32664 0.759889 -2.132 0 0 0 0 255 0
-0.349867 0.776102 -2.22791 0 0 0 0 255 0
-0.373093 0.792315 -2.32381 0 0 0 0 255 0
-0.396319 0.808528 -2.41972 0 0 0 0 255 0
-0.419546 0.824741 -2.51562 0 0 0 0 255 0
-0.442772 0.840954 -2.61153 0 0 0 0 255 0
-0.465998 0.857167 -2.70743 0 0 0 0 255 0
-0.489225 0.87338 -2.80333 0 0 0 0 255 0
-0.512451 0.889593 -2.89924 0 0 0 0 255 0
-0.535678 0.905806 -2.99514 0 0 0 0 255 0
-0.558904 0.922019 -3.09105 0 0 0 0 255 0
-0.58213 0.938232 -3.18695 0 0 0 0 255 0
-0.605357 0.954445 -3.28286 0 0 0 0 255 0
-0.628583 0.970657 -3.37876 0 0 0 0 255 0
-0.651809 0.98687 -3.47467 0 0 0 0 255 0
-0.675036 1.00308 -3.57057 0 0 0 0 255 0
-0.698262 1.0193 -3.66647 0 0 0 0 255 0
-0.721489 1.03551 -3.76238 0 0 0 0 255 0
-0.744715 1.05172 -3.85828 0 0 0 0 255 0
-0.767941 1.06794 -3.95419 0 0 0 0 255 0
-0.791168 1.08415 -4.05009 0 0 0 0 255 0
-0.814394 1.10036 -4.146 0 0 0 0 255 0
-0.83762 1.11657 -4.2419 0 0 0 0 255 0
-0.860847 1.13279 -4.3378 0 0 0 0 255 0
-0.884073 1.149 -4.43371 0 0 0 0 255 0
-0.907299 1.16521 -4.52961 0 0 0 0 255 0
-0.930526 1.18143 -4.62552 0 0 0 0 255 0
-0.953752 1.19764 -4.72142 0 0 0 0 255 0
-0.976979 1.21385 -4.81733 0 0 0 0 255 0
-1.0002 1.23006 -4.91323 0 0 0 0 255 0
-1.02343 1.24628 -5.00914 0 0 0 0 255 0
-1.04666 1.26249 -5.10504 0 0 0 0 255 0
-1.06988 1.2787 -5.20094 0 0 0 0 255 0
-1.09311 1.29492 -5.29685 0 0 0 0 255 0
-1.11634 1.31113 -5.39275 0 0 0 0 255 0
-1.13956 1.32734 -5.48866 0 0 0 0 255 0
-1.16279 1.34355 -5.58456 0 0 0 0 255 0
-1.18602 1.35977 -5.68047 0 0 0 0 255 0
-1.20924 1.37598 -5.77637 0 0 0 0 255 0
-1.23247 1.39219 -5.87228 0 0 0 0 255 0
-1.25569 1.40841 -5.96818 0 0 0 0 255 0
-1.27892 1.42462 -6.06408 0 0 0 0 255 0
-1.30215 1.44083 -6.15999 0 0 0 0 255 0
-1.32537 1.45705 -6.25589 0 0 0 0 255 0
-1.3486 1.47326 -6.3518 0 0 0 0 255 0
-1.37183 1.48947 -6.4477 0 0 0 0 255 0
-1.39505 1.50568 -6.54361 0 0 0 0 255 0
-1.41828 1.5219 -6.63951 0 0 0 0 255 0
-1.44151 1.53811 -6.73542 0 0 0 0 255 0
-1.46473 1.55432 -6.83132 0 0 0 0 255 0
-1.48796 1.57054 -6.92722 0 0 0 0 255 0
-1.51119 1.58675 -7.02313 0 0 0 0 255 0
-1.53441 1.60296 -7.11903 0 0 0 0 255 0
-1.55764 1.61917 -7.21494 0 0 0 0 255 0
-1.58086 1.63539 -7.31084 0 0 0 0 255 0
-1.60409 1.6516 -7.40675 0 0 0 0 255 0
-1.62732 1.66781 -7.50265 0 0 0 0 255 0
-1.65054 1.68403 -7.59856 0 0 0 0 255 0
-1.67377 1.70024 -7.69446 0 0 0 0 255 0
-1.697 1.71645 -7.79037 0 0 0 0 255 0
-1.72022 1.73267 -7.88627 0 0 0 0 255 0
-1.74345 1.74888 -7.98218 0 0 0 0 255 0
-1.76668 1.76509 -8.07808 0 0 0 0 255 0
-1.7899 1.7813 -8.17399 0 0 0 0 255 0
-1.81313 1.79752 -8.26989 0 0 0 0 255 0
-1.83636 1.81373 -8.3658 0 0 0 0 255 0
-1.85958 1.82994 -8.4617 0 0 0 0 255 0
-1.88281 1.84616 -8.55761 0 0 0 0 255 0
-4.94816 -4.06323 9.45115 0 0 0 0 255 0
-4.90363 -4.02089 9.37226 0 0 0 0 255 0
-4.8591 -3.97855 9.29336 0 0 0 0 255 0
-4.81457 -3.9362 9.21447 0 0 0 0 255 0
-4.77004 -3.89386 9.13558 0 0 0 0 255 0
-4.72551 -3.85151 9.05668 0 0 0 0 255 0
-4.68098 -3.80917 8.97779 0 0 0 0 255 0
-4.63646 -3.76682 8.8989 0 0 0 0 255 0
-4.59193 -3.72448 8.82 0 0 0 0 255 0
-4.5474 -3.68214 8.74111 0 0 0 0 255 0
-4.50287 -3.63979 8.66222 0 0 0 0 255 0
-4.45834 -3.59745 8.58332 0 0 0 0 255 0
-4.41381 -3.5551 8.50443 0 0 0 0 255 0
-4.36928 -3.51276 8.42553 0 0 0 0 255 0
-4.32475 -3.47041 8.34664 0 0 0 0 255 0
-4.28022 -3.42807 8.26775 0 0 0 0 255 0
-4.23569 -3.38573 8.18885 0 0 0 0 255 0
-4.19116 -3.34338 8.10996 0 0 0 0 255 0
-4.14663 -3.30104 8.03107 0 0 0 0 255 0
-4.10211 -3.25869 7.95217 0 0 0 0 255 0
-4.05758 -3.21635 7.87328 0 0 0 0 255 0
-4.01305 -3.174 7.79439 0 0 0 0 255 0
-3.96852 -3.13166 7.71549 0 0 0 0 255 0
-3.92399 -3.08932 7.6366 0 0 0 0 255 0
-3.87946 -3.04697 7.55771 0 0 0 0 255 0
-3.83493 -3.00463 7.47881 0 0 0 0 255 0
-3.7904 -2.96228 7.39992 0 0 0 0 255 0
-3.74587 -2.91994 7.32103 0 0 0 0 255 0
-3.70135 -2.8776 7.24213 0 0 0 0 255 0
-3.65682 -2.83525 7.16324 0 0 0 0 255 0
-3.61229 -2.79291 7.08435 0 0 0 0 255 0
-3.56776 -2.75056 7.00545 0 0 0 0 255 0
-3.52323 -2.70822 6.92656 0 0 0 0 255 0
-3.4787 -2.66588 6.84767 0 0 0 0 255 0
-3.43417 -2.62353 6.76878 0 0 0 0 255 0
-3.38964 -2.58119 6.68988 0 0 0 0 255 0
-3.34511 -2.53884 6.61099 0 0 0 0 255 0
-3.30058 -2.4965 6.5321 0 0 0 0 255 0
-3.25606 -2.45416 6.4532 0 0 0 0 255 0
-3.21153 -2.41181 6.37431 0 0 0 0 255 0
-3.167 -2.36947 6.29542 0 0 0 0 255 0
-3.12247 -2.32712 6.21652 0 0 0 0 255 0
-3.07794 -2.28478 6.13763 0 0 0 0 255 0
-3.03341 -2.24244 6.05874 0 0 0 0 255 0
-2.98888 -2.20009 5.97984 0 0 0 0 255 0
-2.94435 -2.15775 5.90095 0 0 0 0 255 0
-2.89982 -2.1154 5.82206 0 0 0 0 255 0
-2.8553 -2.07306 5.74316 0 0 0 0 255 0
-2.81077 -2.03072 5.66427 0 0 0 0 255 0
-2.76624 -1.98837 5.58538 0 0 0 0 255 0
-2.72171 -1.94603 5.50648 0 0 0 0 255 0
-2.67718 -1.90368 5.42759 0 0 0 0 255 0
-2.63265 -1.86134 5.3487 0 0 0 0 255 0
-2.58812 -1.819 5.2698 0 0 0 0 255 0
-2.54359 -1.77665 5.19091 0 0 0 0 255 0
-2.49906 -1.73431 5.11202 0 0 0 0 255 0
-2.45453 -1.69196 5.03313 0 0 0 0 255 0
-2.41001 -1.64962 4.95423 0 0 0 0 255 0
-2.36548 -1.60728 4.87534 0 0 0 0 255 0
-2.32095 -1.56493 4.79645 0 0 0 0 255 0
-2.27642 -1.52259 4.71755 0 0 0 0 255 0
-2.23189 -1.48024 4.63866 0 0 0 0 255 0
-2.18736 -1.4379 4.55977 0 0 0 0 255 0
-2.14283 -1.39555 4.48087 0 0 0 0 255 0
-2.0983 -1.35321 4.40198 0 0 0 0 255 0
-2.05377 -1.31087 4.32309 0 0 0 0 255 0
-2.00925 -1.26852 4.24419 0 0 0 0 255 0
-1.96472 -1.22618 4.1653 0 0 0 0 255 0
-1.92019 -1.18383 4.08641 0 0 0 0 255 0
-1.87566 -1.14149 4.00751 0 0 0 0 255 0
-1.83113 -1.09915 3.92862 0 0 0 0 255 0
-1.7866 -1.0568 3.84973 0 0 0 0 255 0
-1.74207 -1.01446 3.77083 0 0 0 0 255 0
-1.69754 -0.972114 3.69194 0 0 0 0 255 0
-1.65301 -0.92977 3.61305 0 0 0 0 255 0
-1.60848 -0.887426 3.53415 0 0 0 0 255 0
-1.56396 -0.845082 3.45526 0 0 0 0 255 0
-1.51943 -0.802738 3.37637 0 0 0 0 255 0
-1.4749 -0.760394 3.29747 0 0 0 0 255 0
-1.43037 -0.71805 3.21858 0 0 0 0 255 0
-1.38584 -0.675706 3.13969 0 0 0 0 255 0
-1.34131 -0.633362 3.0608 0 0 0 0 255 0
-1.29678 -0.591018 2.9819 0 0 0 0 255 0
-1.25225 -0.548674 2.90301 0 0 0 0 255 0
-1.20772 -0.50633 2.82412 0 0 0 0 255 0
-1.16319 -0.463986 2.74522 0 0 0 0 255 0
-1.11867 -0.421642 2.66633 0 0 0 0 255 0
-1.07414 -0.379297 2.58744 0 0 0 0 255 0
-1.02961 -0.336953 2.50854 0 0 0 0 255 0
-0.985079 -0.294609 2.42965 0 0 0 0 255 0
-0.94055 -0.252265 2.35076 0 0 0 0 255 0
-0.896021 -0.209921 2.27186 0 0 0 0 255 0
-0.851492 -0.167577 2.19297 0 0 0 0 255 0
-0.806963 -0.125233 2.11408 0 0 0 0 255 0
-0.762434 -0.0828887 2.03518 0 0 0 0 255 0
-0.717905 -0.0405446 1.95629 0 0 0 0 255 0
-0.673376 0.00179945 1.8774 0 0 0 0 255 0
-0.628847 0.0441435 1.7985 0 0 0 0 255 0
-0.584318 0.0864876 1.71961 0 0 0 0 255 0
-0.539789 0.128832 1.64072 0 0 0 0 255 0
-0.49526 0.171176 1.56182 0 0 0 0 255 0
-0.450731 0.21352 1.48293 0 0 0 0 255 0
-0.406202 0.255864 1.40404 0 0 0 0 255 0
-0.361673 0.298208 1.32514 0 0 0 0 255 0
-0.317144 0.340552 1.24625 0 0 0 0 255 0
-0.272615 0.382896 1.16736 0 0 0 0 255 0
-0.228086 0.42524 1.08846 0 0 0 0 255 0
-0.183557 0.467584 1.00957 0 0 0 0 255 0
-0.139028 0.509929 0.930677 0 0 0 0 255 0
-0.0944991 0.552273 0.851783 0 0 0 0 255 0
-0.0499701 0.594617 0.77289 0 0 0 0 255 0
-0.00544111 0.636961 0.693997 0 0 0 0 255 0
0.0390879 0.679305 0.615103 0 0 0 0 255 0
0.0836169 0.721649 0.53621 0 0 0 0 255 0
0.128146 0.763993 0.457317 0 0 0 0 255 0
0.172675 0.806337 0.378424 0 0 0 0 255 0
0.217204 0.848681 0.29953 0 0 0 0 255 0
0.261733 0.891025 0.220637 0 0 0 0 255 0
0.306262 0.933369 0.141744 0 0 0 0 255 0
0.350791 0.975714 0.0628504 0 0 0 0 255 0
0.39532 1.01806 -0.0160429 0 0 0 0 255 0
0.439849 1.0604 -0.094936 0 0 0 0 255 0
0.484378 1.10275 -0.173829 0 0 0 0 255 0
0.528907 1.14509 -0.252722 0 0 0 0 255 0
0.573436 1.18743 -0.331616 0 0 0 0 255 0
0.617965 1.22978 -0.410509 0 0 0 0 255 0
0.662494 1.27212 -0.489402 0 0 0 0 255 0
0.707022 1.31447 -0.568295 0 0 0 0 255 0
0.751551 1.35681 -0.647188 0 0 0 0 255 0
0.79608 1.39915 -0.726082 0 0 0 0 255 0
0.840609 1.4415 -0.804975 0 0 0 0 255 0
0.885138 1.48384 -0.883868 0 0 0 0 255 0
0.929667 1.52619 -0.962761 0 0 0 0 255 0
0.974196 1.56853 -1.04165 0 0 0 0 255 0
1.01873 1.61087 -1.12055 0 0 0 0 255 0
1.06325 1.65322 -1.19944 0 0 0 0 255 0
1.10778 1.69556 -1.27833 0 0 0 0 255 0
1.15231 1.73791 -1.35723 0 0 0 0 255 0
1.19684 1.78025 -1.43612 0 0 0 0 255 0
1.24137 1.82259 -1.51501 0 0 0 0 255 0
1.2859 1.86494 -1.59391 0 0 0 0 255 0
1.33043 1.90728 -1.6728 0 0 0 0 255 0
1.37496 1.94963 -1.75169 0 0 0 0 255 0
1.41949 1.99197 -1.83059 0 0 0 0 255 0
1.46401 2.03431 -1.90948 0 0 0 0 255 0
1.50854 2.07666 -1.98837 0 0 0 0 255 0
1.55307 2.119 -2.06727 0 0 0 0 255 0
1.5976 2.16135 -2.14616 0 0 0 0 255 0
1.64213 2.20369 -2.22505 0 0 0 0 255 0
1.68666 2.24604 -2.30395 0 0 0 0 255 0
1.73119 2.28838 -2.38284 0 0 0 0 255 0
1.77572 2.33072 -2.46173 0 0 0 0 255 0
1.82025 2.37307 -2.54063 0 0 0 0 255 0
1.86478 2.41541 -2.61952 0 0 0 0 255 0
1.9093 2.45776 -2.69841 0 0 0 0 255 0
1.95383 2.5001 -2.7773 0 0 0 0 255 0
1.99836 2.54244 -2.8562 0 0 0 0 255 0
2.04289 2.58479 -2.93509 0 0 0 0 255 0
2.08742 2.62713 -3.01398 0 0 0 0 255 0
2.13195 2.66948 -3.09288 0 0 0 0 255 0
2.17648 2.71182 -3.17177 0 0 0 0 255 0
2.22101 2.75416 -3.25066 0 0 0 0 255 0
2.26554 2.79651 -3.32956 0 0 0 0 255 0
2.31006 2.83885 -3.40845 0 0 0 0 255 0
2.35459 2.8812 -3.48734 0 0 0 0 255 0
2.39912 2.92354 -3.56624 0 0 0 0 255 0
2.44365 2.96588 -3.64513 0 0 0 0 255 0
2.48818 3.00823 -3.72402 0 0 0 0 255 0
2.53271 3.05057 -3.80292 0 0 0 0 255 0
2.57724 3.09292 -3.88181 0 0 0 0 255 0
2.62177 3.13526 -3.9607 0 0 0 0 255 0
2.6663 3.1776 -4.0396 0 0 0 0 255 0
2.71083 3.21995 -4.11849 0 0 0 0 255 0
2.75535 3.26229 -4.19738 0 0 0 0 255 0
2.79988 3.30464 -4.27628 0 0 0 0 255 0
2.84441 3.34698 -4.35517 0 0 0 0 255 0
2.88894 3.38932 -4.43406 0 0 0 0 255 0
2.93347 3.43167 -4.51296 0 0 0 0 255 0
2.978 3.47401 -4.59185 0 0 0 0 255 0
3.02253 3.51636 -4.67074 0 0 0 0 255 0
3.06706 3.5587 -4.74963 0 0 0 0 255 0
3.11159 3.60104 -4.82853 0 0 0 0 255 0
3.15611 3.64339 -4.90742 0 0 0 0 255 0
3.20064 3.68573 -4.98631 0 0 0 0 255 0
3.24517 3.72808 -5.06521 0 0 0 0 255 0
3.2897 3.77042 -5.1441 0 0 0 0 255 0
3.33423 3.81277 -5.223 0 0 0 0 255 0
3.37876 3.85511 -5.30189 0 0 0 0 255 0
3.42329 3.89745 -5.38078 0 0 0 0 255 0
3.46782 3.9398 -5.45968 0 0 0 0 255 0
3.51235 3.98214 -5.53857 0 0 0 0 255 0
3.55688 4.02449 -5.61746 0 0 0 0 255 0
3.60141 4.06683 -5.69636 0 0 0 0 255 0
3.64594 4.10918 -5.77525 0 0 0 0 255 0
3.69046 4.15152 -5.85414 0 0 0 0 255 0
3.73499 4.19386 -5.93304 0 0 0 0 255 0
3.77952 4.23621 -6.01193 0 0 0 0 255 0
3.82405 4.27855 -6.09082 0 0 0 0 255 0
3.86858 4.3209 -6.16972 0 0 0 0 255 0
3.91311 4.36324 -6.24861 0 0 0 0 255 0
0.192139 0.49487 0.450741 0 0 0 255 255 0
1.76018 -1.33741 11.0892 0 0 0 0 0 255
1.74083 -1.32378 10.992 0 0 0 0 0 255
1.72148 -1.31015 10.8949 0 0 0 0 0 255
1.70213 -1.29652 10.7977 0 0 0 0 0 255
1.68278 -1.28289 10.7005 0 0 0 0 0 255
1.66343 -1.26926 10.6034 0 0 0 0 0 255
1.64408 -1.25564 10.5062 0 0 0 0 0 255
1.62473 -1.24201 10.4091 0 0 0 0 0 255
1.60539 -1.22838 10.3119 0 0 0 0 0 255
1.58604 -1.21475 10.2147 0 0 0 0 0 255
1.56669 -1.20112 10.1176 0 0 0 0 0 255
1.54734 -1.18749 10.0204 0 0 0 0 0 255
1.52799 -1.17386 9.92326 0 0 0 0 0 255
1.50864 -1.16023 9.8261 0 0 0 0 0 255
1.48929 -1.1466 9.72894 0 0 0 0 0 255
1.46994 -1.13297 9.63178 0 0 0 0 0 255
1.45059 -1.11934 9.53462 0 0 0 0 0 255
1.43124 -1.10571 9.43746 0 0 0 0 0 255
1.41189 -1.09208 9.3403 0 0 0 0 0 255
1.39254 -1.07845 9.24314 0 0 0 0 0 255
1.3732 -1.06483 9.14598 0 0 0 0 0 255
1.35385 -1.0512 9.04883 0 0 0 0 0 255
1.3345 -1.03757 8.95167 0 0 0 0 0 255
1.31515 -1.02394 8.85451 0 0 0 0 0 255
1.2958 -1.01031 8.75735 0 0 0 0 0 255
1.27645 -0.996679 8.66019 0 0 0 0 0 255
1.2571 -0.98305 8.56303 0 0 0 0 0 255
1.23775 -0.96942 8.46587 0 0 0 0 0 255
1.2184 -0.955791 8.36871 0 0 0 0 0 255
1.19905 -0.942162 8.27155 0 0 0 0 0 255
1.1797 -0.928533 8.1744 0 0 0 0 0 255
1.16035 -0.914903 8.07724 0 0 0 0 0 255
1.14101 -0.901274 7.98008 0 0 0 0 0 255
1.12166 -0.887645 7.88292 0 0 0 0 0 255
1.10231 -0.874016 7.78576 0 0 0 0 0 255
1.08296 -0.860386 7.6886 0 0 0 0 0 255
1.06361 -0.846757 7.59144 0 0 0 0 0 255
1.04426 -0.833128 7.49428 0 0 0 0 0 255
1.02491 -0.819499 7.39713 0 0 0 0 0 255
1.00556 -0.805869 7.29997 0 0 0 0 0 255
0.986213 -0.79224 7.20281 0 0 0 0 0 255
0.966863 -0.778611 7.10565 0 0 0 0 0 255
0.947514 -0.764982 7.00849 0 0 0 0 0 255
0.928165 -0.751352 6.91133 0 0 0 0 0 255
0.908816 -0.737723 6.81417 0 0 0 0 0 255
0.889467 -0.724094 6.71701 0 0 0 0 0 255
0.870118 -0.710465 6.61985 0 0 0 0 0 255
0.850769 -0.696835 6.5227 0 0 0 0 0 255
0.83142 -0.683206 6.42554 0 0 0 0 0 255
0.81207 -0.669577 6.32838 0 0 0 0 0 255
0.792721 -0.655948 6.23122 0 0 0 0 0 255
0.773372 -0.642319 6.13406 0 0 0 0 0 255
0.754023 -0.628689 6.0369 0 0 0 0 0 255
0.734674 -0.61506 5.93974 0 0 0 0 0 255
0.715325 -0.601431 5.84258 0 0 0 0 0 255
0.695976 -0.587802 5.74543 0 0 0 0 0 255
0.676626 -0.574172 5.64827 0 0 0 0 0 255
0.657277 -0.560543 5.55111 0 0 0 0 0 255
0.637928 -0.546914 5.45395 0 0 0 0 0 255
0.618579 -0.533285 5.35679 0 0 0 0 0 255
0.59923 -0.519655 5.25963 0 0 0 0 0 255
0.579881 -0.506026 5.16247 0 0 0 0 0 255
0.560532 -0.492397 5.06531 0 0 0 0 0 255
0.541183 -0.478768 4.96815 0 0 0 0 0 255
0.521833 -0.465138 4.871 0 0 0 0 0 255
0.502484 -0.451509 4.77384 0 0 0 0 0 255
0.483135 -0.43788 4.67668 0 0 0 0 0 255
0.463786 -0.424251 4.57952 0 0 0 0 0 255
0.444437 -0.410621 4.48236 0 0 0 0 0 255
0.425088 -0.396992 4.3852 0 0 0 0 0 255
0.405739 -0.383363 4.28804 0 0 0 0 0 255
0.38639 -0.369734 4.19088 0 0 0 0 0 255
0.36704 -0.356104 4.09373 0 0 0 0 0 255
0.347691 -0.342475 3.99657 0 0 0 0 0 255
0.328342 -0.328846 3.89941 0 0 0 0 0 255
0.308993 -0.315217 3.80225 0 0 0 0 0 255
0.289644 -0.301587 3.70509 0 0 0 0 0 255
0.270295 -0.287958 3.60793 0 0 0 0 0 255
0.250946 -0.274329 3.51077 0 0 0 0 0 255
0.231596 -0.2607 3.41361 0 0 0 0 0 255
0.212247 -0.24707 3.31645 0 0 0 0 0 255
0.192898 -0.233441 3.2193 0 0 0 0 0 255
0.173549 -0.219812 3.12214 0 0 0 0 0 255
0.1542 -0.206183 3.02498 0 0 0 0 0 255
0.134851 -0.192553 2.92782 0 0 0 0 0 255
0.115502 -0.178924 2.83066 0 0 0 0 0 255
0.0961524 -0.165295 2.7335 0 0 0 0 0 255
0.0768033 -0.151666 2.63634 0 0 0 0 0 255
0.0574541 -0.138036 2.53918 0 0 0 0 0 255
0.0381049 -0.124407 2.44202 0 0 0 0 0 255
0.0187558 -0.110778 2.34487 0 0 0 0 0 255
-0.000593363 -0.0971485 2.24771 0 0 0 0 0 255
-0.0199425 -0.0835193 2.15055 0 0 0 0 0 255
-0.0392917 -0.06989 2.05339 0 0 0 0 0 255
-0.0586408 -0.0562607 1.95623 0 0 0 0 0 255
-0.07799 -0.0426315 1.85907 0 0 0 0 0 255
-0.0973391 -0.0290022 1.76191 0 0 0 0 0 255
-0.116688 -0.015373 1.66475 0 0 0 0 0 255
-0.136037 -0.00174372 1.56759 0 0 0 0 0 255
-0.155387 0.0118855 1.47044 0 0 0 0 0 255
-0.174736 0.0255148 1.37328 0 0 0 0 0 255
-0.194085 0.0391441 1.27612 0 0 0 0 0 255
-0.213434 0.0527733 1.17896 0 0 0 0 0 255
-0.232783 0.0664026 1.0818 0 0 0 0 0 255
-0.252132 0.0800318 0.984641 0 0 0 0 0 255
-0.271481 0.0936611 0.887482 0 0 0 0 0 255
-0.290831 0.10729 0.790323 0 0 0 0 0 255
-0.31018 0.12092 0.693164 0 0 0 0 0 255
-0.329529 0.134549 0.596005 0 0 0 0 0 255
-0.348878 0.148178 0.498846 0 0 0 0 0 255
-0.368227 0.161807 0.401687 0 0 0 0 0 255
-0.387576 0.175437 0.304528 0 0 0 0 0 255
-0.406926 0.189066 0.207369 0 0 0 0 0 255
-0.426275 0.202695 0.11021 0 0 0 0 0 255
-0.445624 0.216324 0.0130515 0 0 0 0 0 255
-0.464973 0.229954 -0.0841075 0 0 0 0 0 255
-0.484322 0.243583 -0.181266 0 0 0 0 0 255
-0.503671 0.257212 -0.278425 0 0 0 0 0 255
-0.52302 0.270841 -0.375584 0 0 0 0 0 255
-0.54237 0.284471 -0.472743 0 0 0 0 0 255
-0.561719 0.2981 -0.569902 0 0 0 0 0 255
-0.581068 0.311729 -0.667061 0 0 0 0 0 255
-0.600417 0.325358 -0.76422 0 0 0 0 0 255
-0.619766 0.338988 -0.861379 0 0 0 0 0 255
-0.639115 0.352617 -0.958537 0 0 0 0 0 255
-0.658464 0.366246 -1.0557 0 0 0 0 0 255
-0.677814 0.379875 -1.15286 0 0 0 0 0 255
-0.697163 0.393505 -1.25001 0 0 0 0 0 255
-0.716512 0.407134 -1.34717 0 0 0 0 0 255
-0.735861 0.420763 -1.44433 0 0 0 0 0 255
-0.75521 0.434392 -1.54149 0 0 0 0 0 255
-0.774559 0.448022 -1.63865 0 0 0 0 0 255
-0.793908 0.461651 -1.73581 0 0 0 0 0 255
-0.813257 0.47528 -1.83297 0 0 0 0 0 255
-0.832607 0.488909 -1.93013 0 0 0 0 0 255
-0.851956 0.502539 -2.02728 0 0 0 0 0 255
-0.871305 0.516168 -2.12444 0 0 0 0 0 255
-0.890654 0.529797 -2.2216 0 0 0 0 0 255
-0.910003 0.543426 -2.31876 0 0 0 0 0 255
-0.929352 0.557056 -2.41592 0 0 0 0 0 255
-0.948701 0.570685 -2.51308 0 0 0 0 0 255
-0.968051 0.584314 -2.61024 0 0 0 0 0 255
-0.9874 0.597943 -2.7074 0 0 0 0 0 255
-1.00675 0.611573 -2.80456 0 0 0 0 0 255
-1.0261 0.625202 -2.90171 0 0 0 0 0 255
-1.04545 0.638831 -2.99887 0 0 0 0 0 255
-1.0648 0.65246 -3.09603 0 0 0 0 0 255
-1.08415 0.66609 -3.19319 0 0 0 0 0 255
-1.10349 0.679719 -3.29035 0 0 0 0 0 255
-1.12284 0.693348 -3.38751 0 0 0 0 0 255
-1.14219 0.706977 -3.48467 0 0 0 0 0 255
-1.16154 0.720607 -3.58183 0 0 0 0 0 255
-1.18089 0.734236 -3.67898 0 0 0 0 0 255
-1.20024 0.747865 -3.77614 0 0 0 0 0 255
-1.21959 0.761494 -3.8733 0 0 0 0 0 255
-1.23894 0.775124 -3.97046 0 0 0 0 0 255
-1.25829 0.788753 -4.06762 0 0 0 0 0 255
-1.27764 0.802382 -4.16478 0 0 0 0 0 255
-1.29699 0.816011 -4.26194 0 0 0 0 0 255
-1.31633 0.829641 -4.3591 0 0 0 0 0 255
-1.33568 0.84327 -4.45625 0 0 0 0 0 255
-1.35503 0.856899 -4.55341 0 0 0 0 0 255
-1.37438 0.870528 -4.65057 0 0 0 0 0 255
-1.39373 0.884158 -4.74773 0 0 0 0 0 255
-1.41308 0.897787 -4.84489 0 0 0 0 0 255
-1.43243 0.911416 -4.94205 0 0 0 0 0 255
-1.45178 0.925045 -5.03921 0 0 0 0 0 255
-1.47113 0.938675 -5.13637 0 0 0 0 0 255
-1.49048 0.952304 -5.23353 0 0 0 0 0 255
-1.50983 0.965933 -5.33068 0 0 0 0 0 255
-1.52918 0.979562 -5.42784 0 0 0 0 0 255
-1.54852 0.993191 -5.525 0 0 0 0 0 255
-1.56787 1.00682 -5.62216 0 0 0 0 0 255
-1.58722 1.02045 -5.71932 0 0 0 0 0 255
-1.60657 1.03408 -5.81648 0 0 0 0 0 255
-1.62592 1.04771 -5.91364 0 0 0 0 0 255
-1.64527 1.06134 -6.0108 0 0 0 0 0 255
-1.66462 1.07497 -6.10795 0 0 0 0 0 255
-1.68397 1.0886 -6.20511 0 0 0 0 0 255
-1.70332 1.10223 -6.30227 0 0 0 0 0 255
-1.72267 1.11585 -6.39943 0 0 0 0 0 255
-1.74202 1.12948 -6.49659 0 0 0 0 0 255
-1.76136 1.14311 -6.59375 0 0 0 0 0 255
-1.78071 1.15674 -6.69091 0 0 0 0 0 255
-1.80006 1.17037 -6.78807 0 0 0 0 0 255
-1.81941 1.184 -6.88523 0 0 0 0 0 255
-1.83876 1.19763 -6.98239 0 0 0 0 0 255
-1.85811 1.21126 -7.07955 0 0 0 0 0 255
-1.87746 1.22489 -7.17671 0 0 0 0 0 255
-1.89681 1.23852 -7.27386 0 0 0 0 0 255
-1.91616 1.25215 -7.37102 0 0 0 0 0 255
-1.93551 1.26578 -7.46818 0 0 0 0 0 255
-1.95486 1.27941 -7.56534 0 0 0 0 0 255
-1.97421 1.29304 -7.6625 0 0 0 0 0 255
-1.99356 1.30666 -7.75966 0 0 0 0 0 255
-2.0129 1.32029 -7.85682 0 0 0 0 0 255
-2.03225 1.33392 -7.95398 0 0 0 0 0 255
-2.0516 1.34755 -8.05114 0 0 0 0 0 255
-2.07095 1.36118 -8.1483 0 0 0 0 0 255
-2.0903 1.37481 -8.24546 0 0 0 0 0 255
6.11697 -0.994399 9.11133 0 0 0 0 0 255
6.05881 -0.983302 9.03074 0 0 0 0 0 255
6.00066 -0.972204 8.95015 0 0 0 0 0 255
5.9425 -0.961107 8.86956 0 0 0 0 0 255
5.88435 -0.950009 8.78896 0 0 0 0 0 255
5.82619 -0.938911 8.70837 0 0 0 0 0 255
5.76804 -0.927814 8.62778 0 0 0 0 0 255
5.70988 -0.916716 8.54719 0 0 0 0 0 255
5.65172 -0.905618 8.4666 0 0 0 0 0 255
5.59357 -0.894521 8.38601 0 0 0 0 0 255
5.53541 -0.883423 8.30542 0 0 0 0 0 255
5.47726 -0.872325 8.22483 0 0 0 0 0 255
5.4191 -0.861228 8.14424 0 0 0 0 0 255
5.36095 -0.85013 8.06365 0 0 0 0 0 255
5.30279 -0.839032 7.98306 0 0 0 0 0 255
5.24464 -0.827935 7.90247 0 0 0 0 0 255
5.18648 -0.816837 7.82188 0 0 0 0 0 255
5.12832 -0.80574 7.74129 0 0 0 0 0 255
5.07017 -0.794642 7.6607 0 0 0 0 0 255
5.01201 -0.783544 7.58011 0 0 0 0 0 255
4.95386 -0.772447 7.49952 0 0 0 0 0 255
4.8957 -0.761349 7.41893 0 0 0 0 0 255
4.83755 -0.750251 7.33834 0 0 0 0 0 255
4.77939 -0.739154 7.25775 0 0 0 0 0 255
4.72124 -0.728056 7.17716 0 0 0 0 0 255
4.66308 -0.716959 7.09657 0 0 0 0 0 255
4.60492 -0.705861 7.01598 0 0 0 0 0 255
4.54677 -0.694764 6.93539 0 0 0 0 0 255
4.48861 -0.683666 6.8548 0 0 0 0 0 255
4.43046 -0.672568 6.77421 0 0 0 0 0 255
4.3723 -0.661471 6.69362 0 0 0 0 0 255
4.31415 -0.650373 6.61302 0 0 0 0 0 255
4.25599 -0.639276 6.53243 0 0 0 0 0 255
4.19784 -0.628178 6.45184 0 0 0 0 0 255
4.13968 -0.61708 6.37125 0 0 0 0 0 255
4.08153 -0.605983 6.29066 0 0 0 0 0 255
4.02337 -0.594885 6.21007 0 0 0 0 0 255
3.96522 -0.583788 6.12948 0 0 0 0 0 255
3.90706 -0.57269 6.04889 0 0 0 0 0 255
3.8489 -0.561592 5.9683 0 0 0 0 0 255
3.79075 -0.550495 5.88771 0 0 0 0 0 255
3.73259 -0.539397 5.80712 0 0 0 0 0 255
3.67444 -0.5283 5.72653 0 0 0 0 0 255
3.61628 -0.517202 5.64594 0 0 0 0 0 255
3.55813 -0.506104 5.56535 0 0 0 0 0 255
3.49997 -0.495007 5.48476 0 0 0 0 0 255
3.44182 -0.483909 5.40417 0 0 0 0 0 255
3.38366 -0.472812 5.32358 0 0 0 0 0 255
3.32551 -0.461714 5.24299 0 0 0 0 0 255
3.26735 -0.450617 5.1624 0 0 0 0 0 255
3.20919 -0.439519 5.08181 0 0 0 0 0 255
3.15104 -0.428421 5.00122 0 0 0 0 0 255
3.09288 -0.417324 4.92063 0 0 0 0 0 255
3.03473 -0.406226 4.84004 0 0 0 0 0 255
2.97657 -0.395129 4.75945 0 0 0 0 0 255
2.91842 -0.384031 4.67886 0 0 0 0 0 255
2.86026 -0.372933 4.59827 0 0 0 0 0 255
2.80211 -0.361836 4.51768 0 0 0 0 0 255
2.74395 -0.350738 4.43709 0 0 0 0 0 255
2.6858 -0.339641 4.3565 0 0 0 0 0 255
2.62764 -0.328543 4.27591 0 0 0 0 0 255
2.56949 -0.317445 4.19532 0 0 0 0 0 255
2.51133 -0.306348 4.11473 0 0 0 0 0 255
2.45317 -0.29525 4.03414 0 0 0 0 0 255
2.39502 -0.284153 3.95355 0 0 0 0 0 255
2.33686 -0.273055 3.87296 0 0 0 0 0 255
2.27871 -0.261957 3.79237 0 0 0 0 0 255
2.22055 -0.25086 3.71178 0 0 0 0 0 255
2.1624 -0.239762 3.63119 0 0 0 0 0 255
2.10424 -0.228665 3.5506 0 0 0 0 0 255
2.04609 -0.217567 3.47001 0 0 0 0 0 255
1.98793 -0.20647 3.38942 0 0 0 0 0 255
1.92978 -0.195372 3.30883 0 0 0 0 0 255
1.87162 -0.184274 3.22824 0 0 0 0 0 255
1.81347 -0.173177 3.14765 0 0 0 0 0 255
1.75531 -0.162079 3.06706 0 0 0 0 0 255
1.69715 -0.150982 2.98647 0 0 0 0 0 255
1.639 -0.139884 2.90588 0 0 0 0 0 255
1.58084 -0.128786 2.82529 0 0 0 0 0 255
1.52269 -0.117689 2.7447 0 0 0 0 0 255
1.46453 -0.106591 2.66411 0 0 0 0 0 255
1.40638 -0.0954936 2.58352 0 0 0 0 0 255
1.34822 -0.084396 2.50293 0 0 0 0 0 255
1.29007 -0.0732984 2.42234 0 0 0 0 0 255
1.23191 -0.0622008 2.34175 0 0 0 0 0 255
1.17376 -0.0511032 2.26116 0 0 0 0 0 255
1.1156 -0.0400056 2.18057 0 0 0 0 0 255
1.05744 -0.028908 2.09998 0 0 0 0 0 255
0.999289 -0.0178104 2.01938 0 0 0 0 0 255
0.941133 -0.00671277 1.93879 0 0 0 0 0 255
0.882978 0.00438484 1.8582 0 0 0 0 0 255
0.824822 0.0154824 1.77761 0 0 0 0 0 255
0.766667 0.02658 1.69702 0 0 0 0 0 255
0.708512 0.0376776 1.61643 0 0 0 0 0 255
0.650356 0.0487753 1.53584 0 0 0 0 0 255
0.592201 0.0598729 1.45525 0 0 0 0 0 255
0.534045 0.0709705 1.37466 0 0 0 0 0 255
0.47589 0.0820681 1.29407 0 0 0 0 0 255
0.417734 0.0931657 1.21348 0 0 0 0 0 255
0.359579 0.104263 1.13289 0 0 0 0 0 255
0.301423 0.115361 1.0523 0 0 0 0 0 255
0.243268 0.126458 0.971712 0 0 0 0 0 255
0.185112 0.137556 0.891122 0 0 0 0 0 255
0.126957 0.148654 0.810531 0 0 0 0 0 255
0.0688015 0.159751 0.729941 0 0 0 0 0 255
0.010646 0.170849 0.649351 0 0 0 0 0 255
-0.0475095 0.181946 0.568761 0 0 0 0 0 255
-0.105665 0.193044 0.48817 0 0 0 0 0 255
-0.16382 0.204142 0.40758 0 0 0 0 0 255
-0.221976 0.215239 0.32699 0 0 0 0 0 255
-0.280131 0.226337 0.2464 0 0 0 0 0 255
-0.338287 0.237434 0.165809 0 0 0 0 0 255
-0.396442 0.248532 0.0852191 0 0 0 0 0 255
-0.454598 0.25963 0.00462889 0 0 0 0 0 255
-0.512753 0.270727 -0.0759614 0 0 0 0 0 255
-0.570909 0.281825 -0.156552 0 0 0 0 0 255
-0.629064 0.292922 -0.237142 0 0 0 0 0 255
-0.68722 0.30402 -0.317732 0 0 0 0 0 255
-0.745375 0.315118 -0.398322 0 0 0 0 0 255
-0.803531 0.326215 -0.478913 0 0 0 0 0 255
-0.861686 0.337313 -0.559503 0 0 0 0 0 255
-0.919841 0.34841 -0.640093 0 0 0 0 0 255
-0.977997 0.359508 -0.720683 0 0 0 0 0 255
-1.03615 0.370606 -0.801273 0 0 0 0 0 255
-1.09431 0.381703 -0.881864 0 0 0 0 0 255
-1.15246 0.392801 -0.962454 0 0 0 0 0 255
-1.21062 0.403898 -1.04304 0 0 0 0 0 255
-1.26877 0.414996 -1.12363 0 0 0 0 0 255
-1.32693 0.426094 -1.20422 0 0 0 0 0 255
-1.38508 0.437191 -1.28481 0 0 0 0 0 255
-1.44324 0.448289 -1.3654 0 0 0 0 0 255
-1.5014 0.459386 -1.44599 0 0 0 0 0 255
-1.55955 0.470484 -1.52658 0 0 0 0 0 255
-1.61771 0.481582 -1.60717 0 0 0 0 0 255
-1.67586 0.492679 -1.68777 0 0 0 0 0 255
-1.73402 0.503777 -1.76836 0 0 0 0 0 255
-1.79217 0.514874 -1.84895 0 0 0 0 0 255
-1.85033 0.525972 -1.92954 0 0 0 0 0 255
-1.90848 0.53707 -2.01013 0 0 0 0 0 255
-1.96664 0.548167 -2.09072 0 0 0 0 0 255
-2.02479 0.559265 -2.17131 0 0 0 0 0 255
-2.08295 0.570362 -2.2519 0 0 0 0 0 255
-2.14111 0.58146 -2.33249 0 0 0 0 0 255
-2.19926 0.592558 -2.41308 0 0 0 0 0 255
-2.25742 0.603655 -2.49367 0 0 0 0 0 255
-2.31557 0.614753 -2.57426 0 0 0 0 0 255
-2.37373 0.62585 -2.65485 0 0 0 0 0 255
-2.43188 0.636948 -2.73544 0 0 0 0 0 255
-2.49004 0.648045 -2.81603 0 0 0 0 0 255
-2.54819 0.659143 -2.89662 0 0 0 0 0 255
-2.60635 0.670241 -2.97721 0 0 0 0 0 255
-2.6645 0.681338 -3.0578 0 0 0 0 0 255
-2.72266 0.692436 -3.13839 0 0 0 0 0 255
-2.78081 0.703533 -3.21898 0 0 0 0 0 255
-2.83897 0.714631 -3.29957 0 0 0 0 0 255
-2.89713 0.725729 -3.38016 0 0 0 0 0 255
-2.95528 0.736826 -3.46075 0 0 0 0 0 255
-3.01344 0.747924 -3.54134 0 0 0 0 0 255
-3.07159 0.759021 -3.62193 0 0 0 0 0 255
-3.12975 0.770119 -3.70252 0 0 0 0 0 255
-3.1879 0.781217 -3.78311 0 0 0 0 0 255
-3.24606 0.792314 -3.8637 0 0 0 0 0 255
