ply
format ascii 1.0
element vertex 1188
property float x
property float y
property float z
property float nx
property float ny
property float nz
property uchar red
property uchar green
property uchar blue
end_header
-0.891012 3.06476 -4.02592 0 0 0 255 0 0
-0.899933 3.11417 -4.1124 0 0 0 255 0 0
-0.908853 3.16358 -4.19888 0 0 0 255 0 0
-0.917774 3.21299 -4.28537 0 0 0 255 0 0
-0.926695 3.2624 -4.37185 0 0 0 255 0 0
-0.935615 3.31181 -4.45833 0 0 0 255 0 0
-0.944536 3.36122 -4.54481 0 0 0 255 0 0
-0.953456 3.41063 -4.63129 0 0 0 255 0 0
-0.962377 3.46004 -4.71777 0 0 0 255 0 0
-0.971297 3.50945 -4.80425 0 0 0 255 0 0
-0.980218 3.55886 -4.89074 0 0 0 255 0 0
-0.989139 3.60827 -4.97722 0 0 0 255 0 0
-0.998059 3.65768 -5.0637 0 0 0 255 0 0
-1.00698 3.70709 -5.15018 0 0 0 255 0 0
-1.0159 3.7565 -5.23666 0 0 0 255 0 0
-1.02482 3.80591 -5.32314 0 0 0 255 0 0
-1.03374 3.85532 -5.40962 0 0 0 255 0 0
-1.04266 3.90473 -5.49611 0 0 0 255 0 0
-1.05158 3.95414 -5.58259 0 0 0 255 0 0
-1.0605 4.00356 -5.66907 0 0 0 255 0 0
-1.06942 4.05297 -5.75555 0 0 0 255 0 0
-1.07834 4.10238 -5.84203 0 0 0 255 0 0
-1.08727 4.15179 -5.92851 0 0 0 255 0 0
-1.09619 4.2012 -6.01499 0 0 0 255 0 0
-1.10511 4.25061 -6.10148 0 0 0 255 0 0
-1.11403 4.30002 -6.18796 0 0 0 255 0 0
-1.12295 4.34943 -6.27444 0 0 0 255 0 0
-1.13187 4.39884 -6.36092 0 0 0 255 0 0
-1.14079 4.44825 -6.4474 0 0 0 255 0 0
-1.14971 4.49766 -6.53389 0 0 0 255 0 0
-1.15863 4.54707 -6.62037 0 0 0 255 0 0
-1.16755 4.59648 -6.70685 0 0 0 255 0 0
-1.17647 4.64589 -6.79333 0 0 0 255 0 0
-1.18539 4.6953 -6.87981 0 0 0 255 0 0
-1.19431 4.74471 -6.96629 0 0 0 255 0 0
-1.20323 4.79412 -7.05278 0 0 0 255 0 0
-1.21215 4.84353 -7.13926 0 0 0 255 0 0
-1.22107 4.89294 -7.22574 0 0 0 255 0 0
-1.23 4.94235 -7.31222 0 0 0 255 0 0
-1.23892 4.99176 -7.3987 0 0 0 255 0 0
-1.24784 5.04117 -7.48519 0 0 0 255 0 0
6.87148 -3.27781 7.17202 0 0 0 255 0 0
6.80311 -3.24302 7.10787 0 0 0 255 0 0
6.73474 -3.20823 7.04372 0 0 0 255 0 0
6.66637 -3.17345 6.97957 0 0 0 255 0 0
6.59799 -3.13866 6.91542 0 0 0 255 0 0
6.52962 -3.10387 6.85127 0 0 0 255 0 0
6.46125 -3.06909 6.78712 0 0 0 255 0 0
6.39288 -3.0343 6.72297 0 0 0 255 0 0
6.32451 -2.99951 6.65882 0 0 0 255 0 0
6.25613 -2.96472 6.59467 0 0 0 255 0 0
6.18776 -2.92994 6.53052 0 0 0 255 0 0
6.11939 -2.89515 6.46637 0 0 0 255 0 0
6.05102 -2.86036 6.40222 0 0 0 255 0 0
5.98265 -2.82557 6.33807 0 0 0 255 0 0
5.91428 -2.79079 6.27392 0 0 0 255 0 0
5.8459 -2.756 6.20977 0 0 0 255 0 0
5.77753 -2.72121 6.14562 0 0 0 255 0 0
5.70916 -2.68642 6.08147 0 0 0 255 0 0
5.64079 -2.65164 6.01732 0 0 0 255 0 0
5.57242 -2.61685 5.95317 0 0 0 255 0 0
5.50405 -2.58206 5.88902 0 0 0 255 0 0
5.43567 -2.54728 5.82487 0 0 0 255 0 0
5.3673 -2.51249 5.76072 0 0 0 255 0 0
5.29893 -2.4777 5.69657 0 0 0 255 0 0
5.23056 -2.44291 5.63243 0 0 0 255 0 0
5.16219 -2.40813 5.56828 0 0 0 255 0 0
5.09382 -2.37334 5.50413 0 0 0 255 0 0
5.02545 -2.33855 5.43998 0 0 0 255 0 0
4.95707 -2.30377 5.37583 0 0 0 255 0 0
4.8887 -2.26898 5.31168 0 0 0 255 0 0
4.82033 -2.23419 5.24753 0 0 0 255 0 0
4.75196 -2.1994 5.18338 0 0 0 255 0 0
4.68359 -2.16462 5.11923 0 0 0 255 0 0
4.61522 -2.12983 5.05508 0 0 0 255 0 0
4.54685 -2.09504 4.99093 0 0 0 255 0 0
4.47847 -2.06026 4.92678 0 0 0 255 0 0
4.4101 -2.02547 4.86263 0 0 0 255 0 0
4.34173 -1.99068 4.79848 0 0 0 255 0 0
4.27336 -1.95589 4.73433 0 0 0 255 0 0
4.20499 -1.92111 4.67018 0 0 0 255 0 0
4.13662 -1.88632 4.60603 0 0 0 255 0 0
4.06825 -1.85153 4.54188 0 0 0 255 0 0
3.99987 -1.81674 4.47773 0 0 0 255 0 0
3.9315 -1.78196 4.41358 0 0 0 255 0 0
3.86313 -1.74717 4.34943 0 0 0 255 0 0
3.79476 -1.71238 4.28528 0 0 0 255 0 0
3.72639 -1.6776 4.22113 0 0 0 255 0 0
3.65802 -1.64281 4.15698 0 0 0 255 0 0
3.58964 -1.60802 4.09283 0 0 0 255 0 0
3.52127 -1.57323 4.02868 0 0 0 255 0 0
3.4529 -1.53845 3.96453 0 0 0 255 0 0
3.38453 -1.50366 3.90038 0 0 0 255 0 0
3.31616 -1.46887 3.83623 0 0 0 255 0 0
3.24779 -1.43409 3.77208 0 0 0 255 0 0
3.17942 -1.3993 3.70794 0 0 0 255 0 0
3.11104 -1.36451 3.64379 0 0 0 255 0 0
3.04267 -1.32972 3.57964 0 0 0 255 0 0
2.9743 -1.29494 3.51549 0 0 0 255 0 0
2.90593 -1.26015 3.45134 0 0 0 255 0 0
2.83756 -1.22536 3.38719 0 0 0 255 0 0
2.76919 -1.19058 3.32304 0 0 0 255 0 0
2.70082 -1.15579 3.25889 0 0 0 255 0 0
2.63244 -1.121 3.19474 0 0 0 255 0 0
2.56407 -1.08621 3.13059 0 0 0 255 0 0
2.4957 -1.05143 3.06644 0 0 0 255 0 0
2.42733 -1.01664 3.00229 0 0 0 255 0 0
2.35896 -0.981853 2.93814 0 0 0 255 0 0
2.29059 -0.947066 2.87399 0 0 0 255 0 0
2.22222 -0.912278 2.80984 0 0 0 255 0 0
2.15384 -0.877491 2.74569 0 0 0 255 0 0
2.08547 -0.842704 2.68154 0 0 0 255 0 0
2.0171 -0.807917 2.61739 0 0 0 255 0 0
1.94873 -0.77313 2.55324 0 0 0 255 0 0
1.88036 -0.738343 2.48909 0 0 0 255 0 0
1.81199 -0.703555 2.42494 0 0 0 255 0 0
1.74362 -0.668768 2.36079 0 0 0 255 0 0
1.67524 -0.633981 2.29664 0 0 0 255 0 0
1.60687 -0.599194 2.23249 0 0 0 255 0 0
1.5385 -0.564407 2.16834 0 0 0 255 0 0
1.47013 -0.52962 2.10419 0 0 0 255 0 0
1.40176 -0.494832 2.04004 0 0 0 255 0 0
1.33339 -0.460045 1.97589 0 0 0 255 0 0
1.26502 -0.425258 1.91174 0 0 0 255 0 0
1.19664 -0.390471 1.84759 0 0 0 255 0 0
1.12827 -0.355683 1.78344 0 0 0 255 0 0
1.0599 -0.320896 1.71929 0 0 0 255 0 0
0.991529 -0.286109 1.65515 0 0 0 255 0 0
0.923158 -0.251322 1.591 0 0 0 255 0 0
0.854786 -0.216535 1.52685 0 0 0 255 0 0
0.786415 -0.181747 1.4627 0 0 0 255 0 0
0.718043 -0.14696 1.39855 0 0 0 255 0 0
0.649672 -0.112173 1.3344 0 0 0 255 0 0
0.5813 -0.0773858 1.27025 0 0 0 255 0 0
0.512929 -0.0425985 1.2061 0 0 0 255 0 0
0.444557 -0.00781134 1.14195 0 0 0 255 0 0
0.376186 0.0269759 1.0778 0 0 0 255 0 0
0.307814 0.0617631 1.01365 0 0 0 255 0 0
0.239443 0.0965503 0.949498 0 0 0 255 0 0
0.171071 0.131337 0.885348 0 0 0 255 0 0
0.1027 0.166125 0.821199 0 0 0 255 0 0
0.0343282 0.200912 0.757049 0 0 0 255 0 0
-0.0340433 0.235699 0.692899 0 0 0 255 0 0
-0.102415 0.270486 0.628749 0 0 0 255 0 0
-0.170786 0.305274 0.5646 0 0 0 255 0 0
-0.239158 0.340061 0.50045 0 0 0 255 0 0
-0.307529 0.374848 0.4363 0 0 0 255 0 0
-0.375901 0.409635 0.37215 0 0 0 255 0 0
-0.444272 0.444422 0.308001 0 0 0 255 0 0
-0.512644 0.47921 0.243851 0 0 0 255 0 0
-0.581015 0.513997 0.179701 0 0 0 255 0 0
-0.649387 0.548784 0.115551 0 0 0 255 0 0
-0.717758 0.583571 0.0514017 0 0 0 255 0 0
-0.78613 0.618358 -0.0127481 0 0 0 255 0 0
-0.854502 0.653146 -0.0768978 0 0 0 255 0 0
-0.922873 0.687933 -0.141048 0 0 0 255 0 0
-0.991245 0.72272 -0.205197 0 0 0 255 0 0
-1.05962 0.757507 -0.269347 0 0 0 255 0 0
-1.12799 0.792294 -0.333497 0 0 0 255 0 0
-1.19636 0.827082 -0.397647 0 0 0 255 0 0
-1.26473 0.861869 -0.461796 0 0 0 255 0 0
-1.3331 0.896656 -0.525946 0 0 0 255 0 0
-1.40147 0.931443 -0.590096 0 0 0 255 0 0
-1.46985 0.96623 -0.654245 0 0 0 255 0 0
-1.53822 1.00102 -0.718395 0 0 0 255 0 0
-1.60659 1.0358 -0.782545 0 0 0 255 0 0
-1.67496 1.07059 -0.846694 0 0 0 255 0 0
-1.74333 1.10538 -0.910844 0 0 0 255 0 0
-1.8117 1.14017 -0.974994 0 0 0 255 0 0
-1.88007 1.17495 -1.03914 0 0 0 255 0 0
-1.94845 1.20974 -1.10329 0 0 0 255 0 0
-2.01682 1.24453 -1.16744 0 0 0 255 0 0
-2.08519 1.27931 -1.23159 0 0 0 255 0 0
-2.15356 1.3141 -1.29574 0 0 0 255 0 0
-2.22193 1.34889 -1.35989 0 0 0 255 0 0
-2.2903 1.38368 -1.42404 0 0 0 255 0 0
-2.35867 1.41846 -1.48819 0 0 0 255 0 0
-2.42705 1.45325 -1.55234 0 0 0 255 0 0
-2.49542 1.48804 -1.61649 0 0 0 255 0 0
-2.56379 1.52283 -1.68064 0 0 0 255 0 0
-2.63216 1.55761 -1.74479 0 0 0 255 0 0
-2.70053 1.5924 -1.80894 0 0 0 255 0 0
-2.7689 1.62719 -1.87309 0 0 0 255 0 0
-2.83727 1.66197 -1.93724 0 0 0 255 0 0
-2.90565 1.69676 -2.00139 0 0 0 255 0 0
-2.97402 1.73155 -2.06554 0 0 0 255 0 0
-3.04239 1.76634 -2.12969 0 0 0 255 0 0
-3.11076 1.80112 -2.19384 0 0 0 255 0 0
-3.17913 1.83591 -2.25799 0 0 0 255 0 0
-3.2475 1.8707 -2.32214 0 0 0 255 0 0
-3.31587 1.90548 -2.38629 0 0 0 255 0 0
-3.38425 1.94027 -2.45044 0 0 0 255 0 0
-3.45262 1.97506 -2.51459 0 0 0 255 0 0
-3.52099 2.00985 -2.57874 0 0 0 255 0 0
-3.58936 2.04463 -2.64289 0 0 0 255 0 0
-3.65773 2.07942 -2.70703 0 0 0 255 0 0
-3.7261 2.11421 -2.77118 0 0 0 255 0 0
-3.79447 2.14899 -2.83533 0 0 0 255 0 0
-3.86285 2.18378 -2.89948 0 0 0 255 0 0
-3.93122 2.21857 -2.96363 0 0 0 255 0 0
-3.99959 2.25336 -3.02778 0 0 0 255 0 0
-4.06796 2.28814 -3.09193 0 0 0 255 0 0
-4.13633 2.32293 -3.15608 0 0 0 255 0 0
-4.2047 2.35772 -3.22023 0 0 0 255 0 0
-4.27307 2.3925 -3.28438 0 0 0 255 0 0
-4.34145 2.42729 -3.34853 0 0 0 255 0 0
-4.40982 2.46208 -3.41268 0 0 0 255 0 0
-4.47819 2.49687 -3.47683 0 0 0 255 0 0
-4.54656 2.53165 -3.54098 0 0 0 255 0 0
-4.61493 2.56644 -3.60513 0 0 0 255 0 0
-4.6833 2.60123 -3.66928 0 0 0 255 0 0
-4.75167 2.63601 -3.73343 0 0 0 255 0 0
-4.82005 2.6708 -3.79758 0 0 0 255 0 0
-4.88842 2.70559 -3.86173 0 0 0 255 0 0
-4.95679 2.74038 -3.92588 0 0 0 255 0 0
-5.02516 2.77516 -3.99003 0 0 0 255 0 0
-5.09353 2.80995 -4.05418 0 0 0 255 0 0
-5.1619 2.84474 -4.11833 0 0 0 255 0 0
-5.23027 2.87952 -4.18248 0 0 0 255 0 0
-5.29865 2.91431 -4.24663 0 0 0 255 0 0
-5.36702 2.9491 -4.31078 0 0 0 255 0 0
-5.43539 2.98389 -4.37493 0 0 0 255 0 0
-5.50376 3.01867 -4.43908 0 0 0 255 0 0
-5.57213 3.05346 -4.50323 0 0 0 255 0 0
-5.6405 3.08825 -4.56738 0 0 0 255 0 0
-5.70888 3.12304 -4.63153 0 0 0 255 0 0
-5.77725 3.15782 -4.69568 0 0 0 255 0 0
-5.84562 3.19261 -4.75983 0 0 0 255 0 0
-5.91399 3.2274 -4.82398 0 0 0 255 0 0
-5.98236 3.26219 -4.88813 0 0 0 255 0 0
-6.05073 3.29697 -4.95228 0 0 0 255 0 0
-6.11911 3.33176 -5.01643 0 0 0 255 0 0
-6.18748 3.36655 -5.08058 0 0 0 255 0 0
-6.25585 3.40133 -5.14473 0 0 0 255 0 0
-6.32422 3.43612 -5.20888 0 0 0 255 0 0
-6.39259 3.47091 -5.27303 0 0 0 255 0 0
-6.46097 3.5057 -5.33718 0 0 0 255 0 0
-6.52934 3.54048 -5.40133 0 0 0 255 0 0
-6.59771 3.57527 -5.46548 0 0 0 255 0 0
-6.66608 3.61006 -5.52963 0 0 0 255 0 0
-6.73445 3.64485 -5.59378 0 0 0 255 0 0
-1.86472 -4.07739 9.94077 0 0 0 255 0 0
-1.8521 -4.03522 9.85098 0 0 0 255 0 0
-1.83948 -3.99305 9.76119 0 0 0 255 0 0
-1.82685 -3.95088 9.6714 0 0 0 255 0 0
-1.81423 -3.90871 9.58161 0 0 0 255 0 0
-1.8016 -3.86653 9.49182 0 0 0 255 0 0
-1.78898 -3.82436 9.40203 0 0 0 255 0 0
-1.77636 -3.78219 9.31224 0 0 0 255 0 0
-1.76373 -3.74002 9.22245 0 0 0 255 0 0
-1.75111 -3.69785 9.13266 0 0 0 255 0 0
-1.73848 -3.65568 9.04287 0 0 0 255 0 0
-1.72586 -3.61351 8.95308 0 0 0 255 0 0
-1.71324 -3.57134 8.86329 0 0 0 255 0 0
-1.70061 -3.52917 8.77349 0 0 0 255 0 0
-1.68799 -3.487 8.6837 0 0 0 255 0 0
-1.67536 -3.44483 8.59391 0 0 0 255 0 0
-1.66274 -3.40265 8.50412 0 0 0 255 0 0
-1.65011 -3.36048 8.41433 0 0 0 255 0 0
-1.63749 -3.31831 8.32454 0 0 0 255 0 0
-1.62487 -3.27614 8.23475 0 0 0 255 0 0
-1.61224 -3.23397 8.14496 0 0 0 255 0 0
-1.59962 -3.1918 8.05517 0 0 0 255 0 0
-1.58699 -3.14963 7.96538 0 0 0 255 0 0
-1.57437 -3.10746 7.87559 0 0 0 255 0 0
-1.56175 -3.06529 7.7858 0 0 0 255 0 0
-1.54912 -3.02312 7.69601 0 0 0 255 0 0
-1.5365 -2.98095 7.60622 0 0 0 255 0 0
-1.52387 -2.93878 7.51643 0 0 0 255 0 0
-1.51125 -2.89661 7.42664 0 0 0 255 0 0
-1.49863 -2.85443 7.33685 0 0 0 255 0 0
-1.486 -2.81226 7.24706 0 0 0 255 0 0
-1.47338 -2.77009 7.15727 0 0 0 255 0 0
-1.46075 -2.72792 7.06748 0 0 0 255 0 0
-1.44813 -2.68575 6.97769 0 0 0 255 0 0
-1.43551 -2.64358 6.8879 0 0 0 255 0 0
-1.42288 -2.60141 6.79811 0 0 0 255 0 0
-1.41026 -2.55924 6.70832 0 0 0 255 0 0
-1.39763 -2.51707 6.61853 0 0 0 255 0 0
-1.38501 -2.4749 6.52874 0 0 0 255 0 0
-1.37239 -2.43273 6.43895 0 0 0 255 0 0
-1.35976 -2.39056 6.34916 0 0 0 255 0 0
-1.34714 -2.34839 6.25937 0 0 0 255 0 0
-1.33451 -2.30622 6.16958 0 0 0 255 0 0
-1.32189 -2.26404 6.07979 0 0 0 255 0 0
-1.30927 -2.22187 5.99 0 0 0 255 0 0
-1.29664 -2.1797 5.90021 0 0 0 255 0 0
-1.28402 -2.13753 5.81042 0 0 0 255 0 0
-1.27139 -2.09536 5.72063 0 0 0 255 0 0
-1.25877 -2.05319 5.63084 0 0 0 255 0 0
-1.24615 -2.01102 5.54105 0 0 0 255 0 0
-1.23352 -1.96885 5.45126 0 0 0 255 0 0
-1.2209 -1.92668 5.36147 0 0 0 255 0 0
-1.20827 -1.88451 5.27168 0 0 0 255 0 0
-1.19565 -1.84234 5.18189 0 0 0 255 0 0
-1.18303 -1.80017 5.0921 0 0 0 255 0 0
-1.1704 -1.758 5.00231 0 0 0 255 0 0
-1.15778 -1.71582 4.91252 0 0 0 255 0 0
-1.14515 -1.67365 4.82273 0 0 0 255 0 0
-1.13253 -1.63148 4.73294 0 0 0 255 0 0
-1.11991 -1.58931 4.64315 0 0 0 255 0 0
-1.10728 -1.54714 4.55336 0 0 0 255 0 0
-1.09466 -1.50497 4.46357 0 0 0 255 0 0
-1.08203 -1.4628 4.37378 0 0 0 255 0 0
-1.06941 -1.42063 4.28399 0 0 0 255 0 0
-1.05679 -1.37846 4.1942 0 0 0 255 0 0
-1.04416 -1.33629 4.10441 0 0 0 255 0 0
-1.03154 -1.29412 4.01462 0 0 0 255 0 0
-1.01891 -1.25195 3.92483 0 0 0 255 0 0
-1.00629 -1.20978 3.83504 0 0 0 255 0 0
-0.993666 -1.16761 3.74525 0 0 0 255 0 0
-0.981042 -1.12543 3.65546 0 0 0 255 0 0
-0.968418 -1.08326 3.56567 0 0 0 255 0 0
-0.955794 -1.04109 3.47588 0 0 0 255 0 0
-0.94317 -0.998923 3.38609 0 0 0 255 0 0
-0.930546 -0.956752 3.2963 0 0 0 255 0 0
-0.917922 -0.914581 3.20651 0 0 0 255 0 0
-0.905298 -0.87241 3.11672 0 0 0 255 0 0
-0.892674 -0.83024 3.02693 0 0 0 255 0 0
-0.88005 -0.788069 2.93714 0 0 0 255 0 0
-0.867426 -0.745898 2.84735 0 0 0 255 0 0
-0.854801 -0.703728 2.75756 0 0 0 255 0 0
-0.842177 -0.661557 2.66777 0 0 0 255 0 0
-0.829553 -0.619386 2.57798 0 0 0 255 0 0
-0.816929 -0.577215 2.48819 0 0 0 255 0 0
-0.804305 -0.535044 2.3984 0 0 0 255 0 0
-0.791681 -0.492874 2.30861 0 0 0 255 0 0
-0.779057 -0.450703 2.21882 0 0 0 255 0 0
-0.766433 -0.408532 2.12903 0 0 0 255 0 0
-0.753809 -0.366361 2.03924 0 0 0 255 0 0
-0.741185 -0.324191 1.94945 0 0 0 255 0 0
-0.728561 -0.28202 1.85966 0 0 0 255 0 0
-0.715937 -0.239849 1.76987 0 0 0 255 0 0
-0.703313 -0.197678 1.68008 0 0 0 255 0 0
-0.690689 -0.155507 1.59029 0 0 0 255 0 0
-0.678065 -0.113337 1.5005 0 0 0 255 0 0
-0.665441 -0.0711659 1.41071 0 0 0 255 0 0
-0.652817 -0.0289952 1.32092 0 0 0 255 0 0
-0.640193 0.0131756 1.23113 0 0 0 255 0 0
-0.627569 0.0553463 1.14134 0 0 0 255 0 0
-0.614945 0.0975171 1.05155 0 0 0 255 0 0
-0.602321 0.139688 0.961759 0 0 0 255 0 0
-0.589697 0.181859 0.871969 0 0 0 255 0 0
-0.577073 0.224029 0.782179 0 0 0 255 0 0
-0.564449 0.2662 0.692389 0 0 0 255 0 0
-0.551825 0.308371 0.602599 0 0 0 255 0 0
-0.539201 0.350542 0.512809 0 0 0 255 0 0
-0.526577 0.392712 0.423019 0 0 0 255 0 0
-0.513953 0.434883 0.333229 0 0 0 255 0 0
-0.501329 0.477054 0.243439 0 0 0 255 0 0
-0.488705 0.519225 0.153648 0 0 0 255 0 0
-0.476081 0.561396 0.0638584 0 0 0 255 0 0
-0.463457 0.603566 -0.0259317 0 0 0 255 0 0
-0.450832 0.645737 -0.115722 0 0 0 255 0 0
-0.438208 0.687908 -0.205512 0 0 0 255 0 0
-0.425584 0.730079 -0.295302 0 0 0 255 0 0
-0.41296 0.772249 -0.385092 0 0 0 255 0 0
-0.400336 0.81442 -0.474882 0 0 0 255 0 0
-0.387712 0.856591 -0.564672 0 0 0 255 0 0
-0.375088 0.898762 -0.654463 0 0 0 255 0 0
-0.362464 0.940932 -0.744253 0 0 0 255 0 0
-0.34984 0.983103 -0.834043 0 0 0 255 0 0
-0.337216 1.02527 -0.923833 0 0 0 255 0 0
-0.324592 1.06744 -1.01362 0 0 0 255 0 0
-0.311968 1.10962 -1.10341 0 0 0 255 0 0
-0.299344 1.15179 -1.1932 0 0 0 255 0 0
-0.28672 1.19396 -1.28299 0 0 0 255 0 0
-0.274096 1.23613 -1.37278 0 0 0 255 0 0
-0.261472 1.2783 -1.46257 0 0 0 255 0 0
-0.248848 1.32047 -1.55236 0 0 0 255 0 0
-0.236224 1.36264 -1.64215 0 0 0 255 0 0
-0.2236 1.40481 -1.73194 0 0 0 255 0 0
-0.210976 1.44698 -1.82173 0 0 0 255 0 0
-0.198352 1.48915 -1.91152 0 0 0 255 0 0
-0.185728 1.53132 -2.00131 0 0 0 255 0 0
-0.173104 1.57349 -2.0911 0 0 0 255 0 0
-0.16048 1.61566 -2.18089 0 0 0 255 0 0
-0.147856 1.65783 -2.27068 0 0 0 255 0 0
-0.135232 1.70001 -2.36047 0 0 0 255 0 0
-0.122608 1.74218 -2.45026 0 0 0 255 0 0
-0.109984 1.78435 -2.54005 0 0 0 255 0 0
-0.0973598 1.82652 -2.62984 0 0 0 255 0 0
-0.0847358 1.86869 -2.71963 0 0 0 255 0 0
-0.0721118 1.91086 -2.80942 0 0 0 255 0 0
-0.0594878 1.95303 -2.89921 0 0 0 255 0 0
-0.0468638 1.9952 -2.989 0 0 0 255 0 0
-0.0342397 2.03737 -3.07879 0 0 0 255 0 0
-0.0216157 2.07954 -3.16858 0 0 0 255 0 0
-0.00899171 2.12171 -3.25837 0 0 0 255 0 0
0.00363231 2.16388 -3.34816 0 0 0 255 0 0
0.0162563 2.20605 -3.43795 0 0 0 255 0 0
0.0288803 2.24823 -3.52774 0 0 0 255 0 0
0.0415044 2.2904 -3.61753 0 0 0 255 0 0
0.0541284 2.33257 -3.70732 0 0 0 255 0 0
0.0667524 2.37474 -3.79711 0 0 0 255 0 0
0.0793764 2.41691 -3.8869 0 0 0 255 0 0
0.0920004 2.45908 -3.97669 0 0 0 255 0 0
0.104624 2.50125 -4.06648 0 0 0 255 0 0
0.117248 2.54342 -4.15627 0 0 0 255 0 0
0.129872 2.58559 -4.24606 0 0 0 255 0 0
0.142497 2.62776 -4.33585 0 0 0 255 0 0
0.155121 2.66993 -4.42564 0 0 0 255 0 0
0.167745 2.7121 -4.51543 0 0 0 255 0 0
0.180369 2.75427 -4.60522 0 0 0 255 0 0
0.192993 2.79644 -4.69501 0 0 0 255 0 0
0.205617 2.83862 -4.7848 0 0 0 255 0 0
0.218241 2.88079 -4.87459 0 0 0 255 0 0
0.230865 2.92296 -4.96438 0 0 0 255 0 0
0.243489 2.96513 -5.05417 0 0 0 255 0 0
0.256113 3.0073 -5.14396 0 0 0 255 0 0
0.268737 3.04947 -5.23375 0 0 0 255 0 0
0.281361 3.09164 -5.32354 0 0 0 255 0 0
0.293985 3.13381 -5.41333 0 0 0 255 0 0
0.306609 3.17598 -5.50312 0 0 0 255 0 0
0.319233 3.21815 -5.59291 0 0 0 255 0 0
0.331857 3.26032 -5.6827 0 0 0 255 0 0
0.344481 3.30249 -5.77249 0 0 0 255 0 0
0.357105 3.34466 -5.86228 0 0 0 255 0 0
0.369729 3.38683 -5.95207 0 0 0 255 0 0
0.382353 3.42901 -6.04186 0 0 0 255 0 0
0.394977 3.47118 -6.13165 0 0 0 255 0 0
0.407601 3.51335 -6.22144 0 0 0 255 0 0
0.420225 3.55552 -6.31123 0 0 0 255 0 0
0.432849 3.59769 -6.40102 0 0 0 255 0 0
0.445473 3.63986 -6.49081 0 0 0 255 0 0
0.458097 3.68203 -6.5806 0 0 0 255 0 0
0.470721 3.7242 -6.6704 0 0 0 255 0 0
0.483345 3.76637 -6.76019 0 0 0 255 0 0
0.495969 3.80854 -6.84998 0 0 0 255 0 0
0.508593 3.85071 -6.93977 0 0 0 255 0 0
0.521218 3.89288 -7.02956 0 0 0 255 0 0
0.533842 3.93506 -7.11935 0 0 0 255 0 0
0.546466 3.97723 -7.20914 0 0 0 255 0 0
0.55909 4.0194 -7.29893 0 0 0 255 0 0
0.571714 4.06157 -7.38872 0 0 0 255 0 0
0.584338 4.10374 -7.47851 0 0 0 255 0 0
0.596962 4.14591 -7.5683 0 0 0 255 0 0
0.609586 4.18808 -7.65809 0 0 0 255 0 0
0.62221 4.23025 -7.74788 0 0 0 255 0 0
0.634834 4.27242 -7.83767 0 0 0 255 0 0
0.647458 4.31459 -7.92746 0 0 0 255 0 0
-0.474801 0.499504 0.294467 0 0 0 255 255 0
-4.40413 -2.59204 9.60503 0 0 0 0 255 0
-4.36139 -2.56441 9.51895 0 0 0 0 255 0
-4.31865 -2.53677 9.43288 0 0 0 0 255 0
-4.2759 -2.50914 9.3468 0 0 0 0 255 0
-4.23316 -2.48151 9.26072 0 0 0 0 255 0
-4.19041 -2.45387 9.17464 0 0 0 0 255 0
-4.14767 -2.42624 9.08856 0 0 0 0 255 0
-4.10492 -2.39861 9.00249 0 0 0 0 255 0
-4.06218 -2.37097 8.91641 0 0 0 0 255 0
-4.01944 -2.34334 8.83033 0 0 0 0 255 0
-3.97669 -2.31571 8.74425 0 0 0 0 255 0
-3.93395 -2.28807 8.65817 0 0 0 0 255 0
-3.8912 -2.26044 8.5721 0 0 0 0 255 0
-3.84846 -2.23281 8.48602 0 0 0 0 255 0
-3.80571 -2.20517 8.39994 0 0 0 0 255 0
-3.76297 -2.17754 8.31386 0 0 0 0 255 0
-3.72023 -2.14991 8.22779 0 0 0 0 255 0
-3.67748 -2.12227 8.14171 0 0 0 0 255 0
-3.63474 -2.09464 8.05563 0 0 0 0 255 0
-3.59199 -2.06701 7.96955 0 0 0 0 255 0
-3.54925 -2.03937 7.88347 0 0 0 0 255 0
-3.5065 -2.01174 7.7974 0 0 0 0 255 0
-3.46376 -1.98411 7.71132 0 0 0 0 255 0
-3.42102 -1.95647 7.62524 0 0 0 0 255 0
-3.37827 -1.92884 7.53916 0 0 0 0 255 0
-3.33553 -1.90121 7.45309 0 0 0 0 255 0
-3.29278 -1.87357 7.36701 0 0 0 0 255 0
-3.25004 -1.84594 7.28093 0 0 0 0 255 0
-3.2073 -1.81831 7.19486 0 0 0 0 255 0
-3.16455 -1.79067 7.10878 0 0 0 0 255 0
-3.12181 -1.76304 7.0227 0 0 0 0 255 0
-3.07906 -1.73541 6.93662 0 0 0 0 255 0
-3.03632 -1.70777 6.85055 0 0 0 0 255 0
-2.99357 -1.68014 6.76447 0 0 0 0 255 0
-2.95083 -1.65251 6.67839 0 0 0 0 255 0
-2.90809 -1.62487 6.59231 0 0 0 0 255 0
-2.86534 -1.59724 6.50624 0 0 0 0 255 0
-2.8226 -1.56961 6.42016 0 0 0 0 255 0
-2.77985 -1.54197 6.33408 0 0 0 0 255 0
-2.73711 -1.51434 6.248 0 0 0 0 255 0
-2.69437 -1.48671 6.16193 0 0 0 0 255 0
-2.65162 -1.45907 6.07585 0 0 0 0 255 0
-2.60888 -1.43144 5.98977 0 0 0 0 255 0
-2.56613 -1.40381 5.90369 0 0 0 0 255 0
-2.52339 -1.37617 5.81762 0 0 0 0 255 0
-2.48065 -1.34854 5.73154 0 0 0 0 255 0
-2.4379 -1.32091 5.64546 0 0 0 0 255 0
-2.39516 -1.29328 5.55938 0 0 0 0 255 0
-2.35241 -1.26564 5.47331 0 0 0 0 255 0
-2.30967 -1.23801 5.38723 0 0 0 0 255 0
-2.26692 -1.21038 5.30115 0 0 0 0 255 0
-2.22418 -1.18274 5.21507 0 0 0 0 255 0
-2.18144 -1.15511 5.129 0 0 0 0 255 0
-2.13869 -1.12748 5.04292 0 0 0 0 255 0
-2.09595 -1.09984 4.95684 0 0 0 0 255 0
-2.0532 -1.07221 4.87076 0 0 0 0 255 0
-2.01046 -1.04458 4.78469 0 0 0 0 255 0
-1.96772 -1.01694 4.69861 0 0 0 0 255 0
-1.92497 -0.989309 4.61253 0 0 0 0 255 0
-1.88223 -0.961676 4.52645 0 0 0 0 255 0
-1.83948 -0.934043 4.44038 0 0 0 0 255 0
-1.79674 -0.906409 4.3543 0 0 0 0 255 0
-1.754 -0.878776 4.26822 0 0 0 0 255 0
-1.71125 -0.851143 4.18214 0 0 0 0 255 0
-1.66851 -0.82351 4.09607 0 0 0 0 255 0
-1.62576 -0.795876 4.00999 0 0 0 0 255 0
-1.58302 -0.768243 3.92391 0 0 0 0 255 0
-1.54027 -0.74061 3.83784 0 0 0 0 255 0
-1.49753 -0.712977 3.75176 0 0 0 0 255 0
-1.45479 -0.685343 3.66568 0 0 0 0 255 0
-1.41204 -0.65771 3.5796 0 0 0 0 255 0
-1.3693 -0.630077 3.49353 0 0 0 0 255 0
-1.32655 -0.602444 3.40745 0 0 0 0 255 0
-1.28381 -0.57481 3.32137 0 0 0 0 255 0
-1.24107 -0.547177 3.23529 0 0 0 0 255 0
-1.19832 -0.519544 3.14922 0 0 0 0 255 0
-1.15558 -0.49191 3.06314 0 0 0 0 255 0
-1.11283 -0.464277 2.97706 0 0 0 0 255 0
-1.07009 -0.436644 2.89098 0 0 0 0 255 0
-1.02735 -0.409011 2.80491 0 0 0 0 255 0
-0.984601 -0.381377 2.71883 0 0 0 0 255 0
-0.941857 -0.353744 2.63275 0 0 0 0 255 0
-0.899113 -0.326111 2.54667 0 0 0 0 255 0
-0.856369 -0.298477 2.4606 0 0 0 0 255 0
-0.813624 -0.270844 2.37452 0 0 0 0 255 0
-0.77088 -0.243211 2.28844 0 0 0 0 255 0
-0.728136 -0.215578 2.20236 0 0 0 0 255 0
-0.685392 -0.187944 2.11629 0 0 0 0 255 0
-0.642648 -0.160311 2.03021 0 0 0 0 255 0
-0.599904 -0.132678 1.94413 0 0 0 0 255 0
-0.557159 -0.105044 1.85805 0 0 0 0 255 0
-0.514415 -0.0774111 1.77198 0 0 0 0 255 0
-0.471671 -0.0497778 1.6859 0 0 0 0 255 0
-0.428927 -0.0221445 1.59982 0 0 0 0 255 0
-0.386183 0.00548879 1.51374 0 0 0 0 255 0
-0.343439 0.0331221 1.42767 0 0 0 0 255 0
-0.300694 0.0607554 1.34159 0 0 0 0 255 0
-0.25795 0.0883887 1.25551 0 0 0 0 255 0
-0.215206 0.116022 1.16943 0 0 0 0 255 0
-0.172462 0.143655 1.08336 0 0 0 0 255 0
-0.129718 0.171289 0.997278 0 0 0 0 255 0
-0.0869737 0.198922 0.911201 0 0 0 0 255 0
-0.0442295 0.226555 0.825123 0 0 0 0 255 0
-0.00148534 0.254188 0.739046 0 0 0 0 255 0
0.0412588 0.281822 0.652968 0 0 0 0 255 0
0.084003 0.309455 0.566891 0 0 0 0 255 0
0.126747 0.337088 0.480813 0 0 0 0 255 0
0.169491 0.364722 0.394735 0 0 0 0 255 0
0.212235 0.392355 0.308658 0 0 0 0 255 0
0.25498 0.419988 0.22258 0 0 0 0 255 0
0.297724 0.447621 0.136503 0 0 0 0 255 0
0.340468 0.475255 0.0504254 0 0 0 0 255 0
0.383212 0.502888 -0.0356521 0 0 0 0 255 0
0.425956 0.530521 -0.12173 0 0 0 0 255 0
0.4687 0.558155 -0.207807 0 0 0 0 255 0
0.511445 0.585788 -0.293885 0 0 0 0 255 0
0.554189 0.613421 -0.379962 0 0 0 0 255 0
0.596933 0.641055 -0.46604 0 0 0 0 255 0
0.639677 0.668688 -0.552117 0 0 0 0 255 0
0.682421 0.696321 -0.638195 0 0 0 0 255 0
0.725165 0.723954 -0.724272 0 0 0 0 255 0
0.76791 0.751588 -0.81035 0 0 0 0 255 0
0.810654 0.779221 -0.896427 0 0 0 0 255 0
0.853398 0.806854 -0.982505 0 0 0 0 255 0
0.896142 0.834487 -1.06858 0 0 0 0 255 0
0.938886 0.862121 -1.15466 0 0 0 0 255 0
0.98163 0.889754 -1.24074 0 0 0 0 255 0
1.02437 0.917387 -1.32681 0 0 0 0 255 0
1.06712 0.945021 -1.41289 0 0 0 0 255 0
1.10986 0.972654 -1.49897 0 0 0 0 255 0
1.15261 1.00029 -1.58505 0 0 0 0 255 0
1.19535 1.02792 -1.67112 0 0 0 0 255 0
1.23809 1.05555 -1.7572 0 0 0 0 255 0
1.28084 1.08319 -1.84328 0 0 0 0 255 0
1.32358 1.11082 -1.92936 0 0 0 0 255 0
1.36633 1.13845 -2.01543 0 0 0 0 255 0
1.40907 1.16609 -2.10151 0 0 0 0 255 0
1.45182 1.19372 -2.18759 0 0 0 0 255 0
1.49456 1.22135 -2.27367 0 0 0 0 255 0
1.5373 1.24899 -2.35974 0 0 0 0 255 0
1.58005 1.27662 -2.44582 0 0 0 0 255 0
1.62279 1.30425 -2.5319 0 0 0 0 255 0
1.66554 1.33189 -2.61798 0 0 0 0 255 0
1.70828 1.35952 -2.70405 0 0 0 0 255 0
1.75102 1.38715 -2.79013 0 0 0 0 255 0
1.79377 1.41479 -2.87621 0 0 0 0 255 0
1.83651 1.44242 -2.96229 0 0 0 0 255 0
1.87926 1.47005 -3.04836 0 0 0 0 255 0
1.922 1.49769 -3.13444 0 0 0 0 255 0
1.96475 1.52532 -3.22052 0 0 0 0 255 0
2.00749 1.55295 -3.3066 0 0 0 0 255 0
2.05023 1.58059 -3.39267 0 0 0 0 255 0
2.09298 1.60822 -3.47875 0 0 0 0 255 0
2.13572 1.63585 -3.56483 0 0 0 0 255 0
2.17847 1.66349 -3.65091 0 0 0 0 255 0
2.22121 1.69112 -3.73698 0 0 0 0 255 0
2.26395 1.71875 -3.82306 0 0 0 0 255 0
2.3067 1.74639 -3.90914 0 0 0 0 255 0
2.34944 1.77402 -3.99521 0 0 0 0 255 0
2.39219 1.80165 -4.08129 0 0 0 0 255 0
2.43493 1.82929 -4.16737 0 0 0 0 255 0
2.47767 1.85692 -4.25345 0 0 0 0 255 0
2.52042 1.88455 -4.33952 0 0 0 0 255 0
2.56316 1.91218 -4.4256 0 0 0 0 255 0
2.60591 1.93982 -4.51168 0 0 0 0 255 0
2.64865 1.96745 -4.59776 0 0 0 0 255 0
2.6914 1.99508 -4.68383 0 0 0 0 255 0
2.73414 2.02272 -4.76991 0 0 0 0 255 0
2.77688 2.05035 -4.85599 0 0 0 0 255 0
2.81963 2.07798 -4.94207 0 0 0 0 255 0
2.86237 2.10562 -5.02814 0 0 0 0 255 0
2.90512 2.13325 -5.11422 0 0 0 0 255 0
2.94786 2.16088 -5.2003 0 0 0 0 255 0
2.9906 2.18852 -5.28638 0 0 0 0 255 0
3.03335 2.21615 -5.37245 0 0 0 0 255 0
3.07609 2.24378 -5.45853 0 0 0 0 255 0
3.11884 2.27142 -5.54461 0 0 0 0 255 0
3.16158 2.29905 -5.63069 0 0 0 0 255 0
3.20432 2.32668 -5.71676 0 0 0 0 255 0
3.24707 2.35432 -5.80284 0 0 0 0 255 0
3.28981 2.38195 -5.88892 0 0 0 0 255 0
3.33256 2.40958 -5.975 0 0 0 0 255 0
3.3753 2.43722 -6.06107 0 0 0 0 255 0
3.41805 2.46485 -6.14715 0 0 0 0 255 0
3.46079 2.49248 -6.23323 0 0 0 0 255 0
3.50353 2.52012 -6.31931 0 0 0 0 255 0
3.54628 2.54775 -6.40538 0 0 0 0 255 0
3.58902 2.57538 -6.49146 0 0 0 0 255 0
3.63177 2.60302 -6.57754 0 0 0 0 255 0
3.67451 2.63065 -6.66362 0 0 0 0 255 0
3.71726 2.65828 -6.7497 0 0 0 0 255 0
3.76 2.68592 -6.83577 0 0 0 0 255 0
3.80274 2.71355 -6.92185 0 0 0 0 255 0
3.84549 2.74118 -7.00793 0 0 0 0 255 0
3.88823 2.76882 -7.09401 0 0 0 0 255 0
3.93098 2.79645 -7.18009 0 0 0 0 255 0
3.97372 2.82408 -7.26616 0 0 0 0 255 0
4.01647 2.85172 -7.35224 0 0 0 0 255 0
4.05921 2.87935 -7.43832 0 0 0 0 255 0
4.10195 2.90698 -7.5244 0 0 0 0 255 0
2.51284 -1.46371 10.2302 0 0 0 0 255 0
2.49019 -1.44714 10.1342 0 0 0 0 255 0
2.46753 -1.43057 10.0382 0 0 0 0 255 0
2.44488 -1.414 9.94222 0 0 0 0 255 0
2.42223 -1.39744 9.84623 0 0 0 0 255 0
2.39958 -1.38087 9.75025 0 0 0 0 255 0
2.37692 -1.3643 9.65427 0 0 0 0 255 0
2.35427 -1.34773 9.55829 0 0 0 0 255 0
2.33162 -1.33116 9.46231 0 0 0 0 255 0
2.30897 -1.3146 9.36633 0 0 0 0 255 0
2.28632 -1.29803 9.27034 0 0 0 0 255 0
2.26366 -1.28146 9.17436 0 0 0 0 255 0
2.24101 -1.26489 9.07838 0 0 0 0 255 0
2.21836 -1.24833 8.9824 0 0 0 0 255 0
2.19571 -1.23176 8.88642 0 0 0 0 255 0
2.17305 -1.21519 8.79044 0 0 0 0 255 0
2.1504 -1.19862 8.69446 0 0 0 0 255 0
2.12775 -1.18205 8.59847 0 0 0 0 255 0
2.1051 -1.16549 8.50249 0 0 0 0 255 0
2.08245 -1.14892 8.40651 0 0 0 0 255 0
2.05979 -1.13235 8.31053 0 0 0 0 255 0
2.03714 -1.11578 8.21455 0 0 0 0 255 0
2.01449 -1.09922 8.11857 0 0 0 0 255 0
1.99184 -1.08265 8.02259 0 0 0 0 255 0
1.96919 -1.06608 7.9266 0 0 0 0 255 0
1.94653 -1.04951 7.83062 0 0 0 0 255 0
1.92388 -1.03295 7.73464 0 0 0 0 255 0
1.90123 -1.01638 7.63866 0 0 0 0 255 0
1.87858 -0.999811 7.54268 0 0 0 0 255 0
1.85593 -0.983243 7.4467 0 0 0 0 255 0
1.83327 -0.966675 7.35072 0 0 0 0 255 0
1.81062 -0.950108 7.25474 0 0 0 0 255 0
1.78797 -0.93354 7.15876 0 0 0 0 255 0
1.76532 -0.916972 7.06277 0 0 0 0 255 0
1.74267 -0.900405 6.96679 0 0 0 0 255 0
1.72001 -0.883837 6.87081 0 0 0 0 255 0
1.69736 -0.867269 6.77483 0 0 0 0 255 0
1.67471 -0.850702 6.67885 0 0 0 0 255 0
1.65206 -0.834134 6.58287 0 0 0 0 255 0
1.6294 -0.817567 6.48689 0 0 0 0 255 0
1.60675 -0.800999 6.39091 0 0 0 0 255 0
1.5841 -0.784431 6.29493 0 0 0 0 255 0
1.56145 -0.767864 6.19894 0 0 0 0 255 0
1.5388 -0.751296 6.10296 0 0 0 0 255 0
1.51614 -0.734728 6.00698 0 0 0 0 255 0
1.49349 -0.718161 5.911 0 0 0 0 255 0
1.47084 -0.701593 5.81502 0 0 0 0 255 0
1.44819 -0.685025 5.71904 0 0 0 0 255 0
1.42554 -0.668458 5.62306 0 0 0 0 255 0
1.40288 -0.65189 5.52708 0 0 0 0 255 0
1.38023 -0.635322 5.4311 0 0 0 0 255 0
1.35758 -0.618755 5.33511 0 0 0 0 255 0
1.33493 -0.602187 5.23913 0 0 0 0 255 0
1.31228 -0.585619 5.14315 0 0 0 0 255 0
1.28962 -0.569052 5.04717 0 0 0 0 255 0
1.26697 -0.552484 4.95119 0 0 0 0 255 0
1.24432 -0.535917 4.85521 0 0 0 0 255 0
1.22167 -0.519349 4.75923 0 0 0 0 255 0
1.19902 -0.502781 4.66325 0 0 0 0 255 0
1.17636 -0.486214 4.56727 0 0 0 0 255 0
1.15371 -0.469646 4.47128 0 0 0 0 255 0
1.13106 -0.453078 4.3753 0 0 0 0 255 0
1.10841 -0.436511 4.27932 0 0 0 0 255 0
1.08576 -0.419943 4.18334 0 0 0 0 255 0
1.0631 -0.403375 4.08736 0 0 0 0 255 0
1.04045 -0.386808 3.99138 0 0 0 0 255 0
1.0178 -0.37024 3.8954 0 0 0 0 255 0
0.995147 -0.353672 3.79942 0 0 0 0 255 0
0.972495 -0.337105 3.70343 0 0 0 0 255 0
0.949843 -0.320537 3.60745 0 0 0 0 255 0
0.927191 -0.303969 3.51147 0 0 0 0 255 0
0.904539 -0.287402 3.41549 0 0 0 0 255 0
0.881886 -0.270834 3.31951 0 0 0 0 255 0
0.859234 -0.254266 3.22353 0 0 0 0 255 0
0.836582 -0.237699 3.12755 0 0 0 0 255 0
0.81393 -0.221131 3.03157 0 0 0 0 255 0
0.791278 -0.204564 2.93559 0 0 0 0 255 0
0.768626 -0.187996 2.8396 0 0 0 0 255 0
0.745974 -0.171428 2.74362 0 0 0 0 255 0
0.723322 -0.154861 2.64764 0 0 0 0 255 0
0.70067 -0.138293 2.55166 0 0 0 0 255 0
0.678018 -0.121725 2.45568 0 0 0 0 255 0
0.655366 -0.105158 2.3597 0 0 0 0 255 0
0.632714 -0.0885899 2.26372 0 0 0 0 255 0
0.610062 -0.0720223 2.16774 0 0 0 0 255 0
0.587409 -0.0554546 2.07176 0 0 0 0 255 0
0.564757 -0.0388869 1.97577 0 0 0 0 255 0
0.542105 -0.0223193 1.87979 0 0 0 0 255 0
0.519453 -0.00575159 1.78381 0 0 0 0 255 0
0.496801 0.0108161 1.68783 0 0 0 0 255 0
0.474149 0.0273837 1.59185 0 0 0 0 255 0
0.451497 0.0439514 1.49587 0 0 0 0 255 0
0.428845 0.0605191 1.39989 0 0 0 0 255 0
0.406193 0.0770867 1.30391 0 0 0 0 255 0
0.383541 0.0936544 1.20792 0 0 0 0 255 0
0.360889 0.110222 1.11194 0 0 0 0 255 0
0.338236 0.12679 1.01596 0 0 0 0 255 0
0.315584 0.143357 0.91998 0 0 0 0 255 0
0.292932 0.159925 0.823999 0 0 0 0 255 0
0.27028 0.176493 0.728018 0 0 0 0 255 0
0.247628 0.19306 0.632037 0 0 0 0 255 0
0.224976 0.209628 0.536055 0 0 0 0 255 0
0.202324 0.226196 0.440074 0 0 0 0 255 0
0.179672 0.242763 0.344093 0 0 0 0 255 0
0.15702 0.259331 0.248112 0 0 0 0 255 0
0.134368 0.275899 0.15213 0 0 0 0 255 0
0.111716 0.292466 0.0561492 0 0 0 0 255 0
0.0890635 0.309034 -0.039832 0 0 0 0 255 0
0.0664114 0.325602 -0.135813 0 0 0 0 255 0
0.0437593 0.342169 -0.231795 0 0 0 0 255 0
0.0211072 0.358737 -0.327776 0 0 0 0 255 0
-0.0015449 0.375305 -0.423757 0 0 0 0 255 0
-0.024197 0.391872 -0.519738 0 0 0 0 255 0
-0.0468491 0.40844 -0.615719 0 0 0 0 255 0
-0.0695012 0.425008 -0.711701 0 0 0 0 255 0
-0.0921533 0.441575 -0.807682 0 0 0 0 255 0
-0.114805 0.458143 -0.903663 0 0 0 0 255 0
-0.137457 0.474711 -0.999644 0 0 0 0 255 0
-0.16011 0.491278 -1.09563 0 0 0 0 255 0
-0.182762 0.507846 -1.19161 0 0 0 0 255 0
-0.205414 0.524414 -1.28759 0 0 0 0 255 0
-0.228066 0.540981 -1.38357 0 0 0 0 255 0
-0.250718 0.557549 -1.47955 0 0 0 0 255 0
-0.27337 0.574117 -1.57553 0 0 0 0 255 0
-0.296022 0.590684 -1.67151 0 0 0 0 255 0
-0.318674 0.607252 -1.76749 0 0 0 0 255 0
-0.341326 0.62382 -1.86347 0 0 0 0 255 0
-0.363978 0.640387 -1.95946 0 0 0 0 255 0
-0.38663 0.656955 -2.05544 0 0 0 0 255 0
-0.409282 0.673523 -2.15142 0 0 0 0 255 0
-0.431934 0.69009 -2.2474 0 0 0 0 255 0
-0.454586 0.706658 -2.34338 0 0 0 0 255 0
-0.477239 0.723225 -2.43936 0 0 0 0 255 0
-0.499891 0.739793 -2.53534 0 0 0 0 255 0
-0.522543 0.756361 -2.63132 0 0 0 0 255 0
-0.545195 0.772928 -2.72731 0 0 0 0 255 0
-0.567847 0.789496 -2.82329 0 0 0 0 255 0
-0.590499 0.806064 -2.91927 0 0 0 0 255 0
-0.613151 0.822631 -3.01525 0 0 0 0 255 0
-0.635803 0.839199 -3.11123 0 0 0 0 255 0
-0.658455 0.855767 -3.20721 0 0 0 0 255 0
-0.681107 0.872334 -3.30319 0 0 0 0 255 0
-0.703759 0.888902 -3.39917 0 0 0 0 255 0
-0.726411 0.90547 -3.49515 0 0 0 0 255 0
-0.749063 0.922037 -3.59114 0 0 0 0 255 0
-0.771715 0.938605 -3.68712 0 0 0 0 255 0
-0.794368 0.955173 -3.7831 0 0 0 0 255 0
-0.81702 0.97174 -3.87908 0 0 0 0 255 0
-0.839672 0.988308 -3.97506 0 0 0 0 255 0
-0.862324 1.00488 -4.07104 0 0 0 0 255 0
-0.884976 1.02144 -4.16702 0 0 0 0 255 0
-0.907628 1.03801 -4.263 0 0 0 0 255 0
-0.93028 1.05458 -4.35898 0 0 0 0 255 0
-0.952932 1.07115 -4.45497 0 0 0 0 255 0
-0.975584 1.08771 -4.55095 0 0 0 0 255 0
-0.998236 1.10428 -4.64693 0 0 0 0 255 0
-1.02089 1.12085 -4.74291 0 0 0 0 255 0
-1.04354 1.13742 -4.83889 0 0 0 0 255 0
-1.06619 1.15398 -4.93487 0 0 0 0 255 0
-1.08884 1.17055 -5.03085 0 0 0 0 255 0
-1.1115 1.18712 -5.12683 0 0 0 0 255 0
-1.13415 1.20369 -5.22281 0 0 0 0 255 0
-1.1568 1.22025 -5.3188 0 0 0 0 255 0
-1.17945 1.23682 -5.41478 0 0 0 0 255 0
-1.2021 1.25339 -5.51076 0 0 0 0 255 0
-1.22476 1.26996 -5.60674 0 0 0 0 255 0
-1.24741 1.28653 -5.70272 0 0 0 0 255 0
-1.27006 1.30309 -5.7987 0 0 0 0 255 0
-1.29271 1.31966 -5.89468 0 0 0 0 255 0
-1.31537 1.33623 -5.99066 0 0 0 0 255 0
-1.33802 1.3528 -6.08664 0 0 0 0 255 0
-1.36067 1.36936 -6.18263 0 0 0 0 255 0
-1.38332 1.38593 -6.27861 0 0 0 0 255 0
-1.40597 1.4025 -6.37459 0 0 0 0 255 0
-1.42863 1.41907 -6.47057 0 0 0 0 255 0
-1.45128 1.43563 -6.56655 0 0 0 0 255 0
-1.47393 1.4522 -6.66253 0 0 0 0 255 0
-1.49658 1.46877 -6.75851 0 0 0 0 255 0
-1.51923 1.48534 -6.85449 0 0 0 0 255 0
-1.54189 1.5019 -6.95048 0 0 0 0 255 0
-1.56454 1.51847 -7.04646 0 0 0 0 255 0
-1.58719 1.53504 -7.14244 0 0 0 0 255 0
-1.60984 1.55161 -7.23842 0 0 0 0 255 0
-1.63249 1.56818 -7.3344 0 0 0 0 255 0
-1.65515 1.58474 -7.43038 0 0 0 0 255 0
-1.6778 1.60131 -7.52636 0 0 0 0 255 0
-1.70045 1.61788 -7.62235 0 0 0 0 255 0
-1.7231 1.63445 -7.71833 0 0 0 0 255 0
-1.74576 1.65101 -7.81431 0 0 0 0 255 0
-1.76841 1.66758 -7.91029 0 0 0 0 255 0
-1.79106 1.68415 -8.00627 0 0 0 0 255 0
-1.81371 1.70072 -8.10225 0 0 0 0 255 0
-1.83636 1.71729 -8.19823 0 0 0 0 255 0
-1.85902 1.73385 -8.29422 0 0 0 0 255 0
-1.88167 1.75042 -8.3902 0 0 0 0 255 0
-1.90432 1.76699 -8.48618 0 0 0 0 255 0
-1.92697 1.78356 -8.58216 0 0 0 0 255 0
-1.94962 1.80012 -8.67814 0 0 0 0 255 0
-1.97228 1.81669 -8.77412 0 0 0 0 255 0
-1.99493 1.83326 -8.87011 0 0 0 0 255 0
-5.23773 -1.54734 9.54732 0 0 0 0 255 0
-5.18917 -1.53004 9.46163 0 0 0 0 255 0
-5.14061 -1.51274 9.37594 0 0 0 0 255 0
-5.09204 -1.49544 9.29025 0 0 0 0 255 0
-5.04348 -1.47814 9.20457 0 0 0 0 255 0
-4.99491 -1.46084 9.11888 0 0 0 0 255 0
-4.94635 -1.44354 9.03319 0 0 0 0 255 0
-4.89778 -1.42624 8.94751 0 0 0 0 255 0
-4.84922 -1.40894 8.86182 0 0 0 0 255 0
-4.80066 -1.39164 8.77613 0 0 0 0 255 0
-4.75209 -1.37434 8.69044 0 0 0 0 255 0
-4.70353 -1.35704 8.60476 0 0 0 0 255 0
-4.65496 -1.33974 8.51907 0 0 0 0 255 0
-4.6064 -1.32244 8.43338 0 0 0 0 255 0
-4.55783 -1.30514 8.3477 0 0 0 0 255 0
-4.50927 -1.28784 8.26201 0 0 0 0 255 0
-4.4607 -1.27054 8.17632 0 0 0 0 255 0
-4.41214 -1.25324 8.09063 0 0 0 0 255 0
-4.36358 -1.23594 8.00495 0 0 0 0 255 0
-4.31501 -1.21864 7.91926 0 0 0 0 255 0
-4.26645 -1.20134 7.83357 0 0 0 0 255 0
-4.21788 -1.18404 7.74789 0 0 0 0 255 0
-4.16932 -1.16674 7.6622 0 0 0 0 255 0
-4.12076 -1.14944 7.57651 0 0 0 0 255 0
-4.07219 -1.13214 7.49083 0 0 0 0 255 0
-4.02363 -1.11484 7.40514 0 0 0 0 255 0
-3.97506 -1.09754 7.31945 0 0 0 0 255 0
-3.9265 -1.08024 7.23377 0 0 0 0 255 0
-3.87794 -1.06294 7.14808 0 0 0 0 255 0
-3.82937 -1.04564 7.06239 0 0 0 0 255 0
-3.78081 -1.02834 6.97671 0 0 0 0 255 0
-3.73224 -1.01104 6.89102 0 0 0 0 255 0
-3.68368 -0.99374 6.80533 0 0 0 0 255 0
-3.63511 -0.97644 6.71965 0 0 0 0 255 0
-3.58655 -0.95914 6.63396 0 0 0 0 255 0
-3.53799 -0.94184 6.54827 0 0 0 0 255 0
-3.48942 -0.92454 6.46258 0 0 0 0 255 0
-3.44086 -0.90724 6.3769 0 0 0 0 255 0
-3.39229 -0.88994 6.29121 0 0 0 0 255 0
-3.34373 -0.87264 6.20552 0 0 0 0 255 0
-3.29517 -0.85534 6.11984 0 0 0 0 255 0
-3.2466 -0.83804 6.03415 0 0 0 0 255 0
-3.19804 -0.82074 5.94846 0 0 0 0 255 0
-3.14947 -0.80344 5.86278 0 0 0 0 255 0
-3.10091 -0.78614 5.77709 0 0 0 0 255 0
-3.05235 -0.76884 5.6914 0 0 0 0 255 0
-3.00378 -0.75154 5.60572 0 0 0 0 255 0
-2.95522 -0.734239 5.52003 0 0 0 0 255 0
-2.90665 -0.716939 5.43434 0 0 0 0 255 0
-2.85809 -0.699639 5.34866 0 0 0 0 255 0
-2.80953 -0.682339 5.26297 0 0 0 0 255 0
-2.76096 -0.665039 5.17728 0 0 0 0 255 0
-2.7124 -0.647739 5.0916 0 0 0 0 255 0
-2.66383 -0.630439 5.00591 0 0 0 0 255 0
-2.61527 -0.613139 4.92022 0 0 0 0 255 0
-2.5667 -0.595839 4.83454 0 0 0 0 255 0
-2.51814 -0.578539 4.74885 0 0 0 0 255 0
-2.46958 -0.561239 4.66316 0 0 0 0 255 0
-2.42101 -0.543939 4.57748 0 0 0 0 255 0
-2.37245 -0.526639 4.49179 0 0 0 0 255 0
-2.32388 -0.509339 4.4061 0 0 0 0 255 0
-2.27532 -0.492039 4.32042 0 0 0 0 255 0
-2.22676 -0.474738 4.23473 0 0 0 0 255 0
-2.17819 -0.457438 4.14904 0 0 0 0 255 0
-2.12963 -0.440138 4.06336 0 0 0 0 255 0
-2.08106 -0.422838 3.97767 0 0 0 0 255 0
-2.0325 -0.405538 3.89198 0 0 0 0 255 0
-1.98394 -0.388238 3.8063 0 0 0 0 255 0
-1.93537 -0.370938 3.72061 0 0 0 0 255 0
-1.88681 -0.353638 3.63492 0 0 0 0 255 0
-1.83824 -0.336338 3.54924 0 0 0 0 255 0
-1.78968 -0.319038 3.46355 0 0 0 0 255 0
-1.74112 -0.301738 3.37786 0 0 0 0 255 0
-1.69255 -0.284438 3.29218 0 0 0 0 255 0
-1.64399 -0.267138 3.20649 0 0 0 0 255 0
-1.59542 -0.249838 3.1208 0 0 0 0 255 0
-1.54686 -0.232537 3.03512 0 0 0 0 255 0
-1.49829 -0.215237 2.94943 0 0 0 0 255 0
-1.44973 -0.197937 2.86374 0 0 0 0 255 0
-1.40117 -0.180637 2.77806 0 0 0 0 255 0
-1.3526 -0.163337 2.69237 0 0 0 0 255 0
-1.30404 -0.146037 2.60668 0 0 0 0 255 0
-1.25547 -0.128737 2.52099 0 0 0 0 255 0
-1.20691 -0.111437 2.43531 0 0 0 0 255 0
-1.15835 -0.0941368 2.34962 0 0 0 0 255 0
-1.10978 -0.0768368 2.26393 0 0 0 0 255 0
-1.06122 -0.0595367 2.17825 0 0 0 0 255 0
-1.01265 -0.0422366 2.09256 0 0 0 0 255 0
-0.964089 -0.0249365 2.00687 0 0 0 0 255 0
-0.915525 -0.00763641 1.92119 0 0 0 0 255 0
-0.866961 0.00966368 1.8355 0 0 0 0 255 0
-0.818397 0.0269638 1.74981 0 0 0 0 255 0
-0.769833 0.0442639 1.66413 0 0 0 0 255 0
-0.721269 0.0615639 1.57844 0 0 0 0 255 0
-0.672704 0.078864 1.49275 0 0 0 0 255 0
-0.62414 0.0961641 1.40707 0 0 0 0 255 0
-0.575576 0.113464 1.32138 0 0 0 0 255 0
-0.527012 0.130764 1.23569 0 0 0 0 255 0
-0.478448 0.148064 1.15001 0 0 0 0 255 0
-0.429884 0.165364 1.06432 0 0 0 0 255 0
-0.38132 0.182665 0.978632 0 0 0 0 255 0
-0.332755 0.199965 0.892945 0 0 0 0 255 0
-0.284191 0.217265 0.807258 0 0 0 0 255 0
-0.235627 0.234565 0.721571 0 0 0 0 255 0
-0.187063 0.251865 0.635884 0 0 0 0 255 0
-0.138499 0.269165 0.550197 0 0 0 0 255 0
-0.0899348 0.286465 0.464511 0 0 0 0 255 0
-0.0413706 0.303765 0.378824 0 0 0 0 255 0
0.00719354 0.321065 0.293137 0 0 0 0 255 0
0.0557577 0.338365 0.20745 0 0 0 0 255 0
0.104322 0.355665 0.121763 0 0 0 0 255 0
0.152886 0.372965 0.0360764 0 0 0 0 255 0
0.20145 0.390266 -0.0496104 0 0 0 0 255 0
0.250014 0.407566 -0.135297 0 0 0 0 255 0
0.298578 0.424866 -0.220984 0 0 0 0 255 0
0.347143 0.442166 -0.306671 0 0 0 0 255 0
0.395707 0.459466 -0.392358 0 0 0 0 255 0
0.444271 0.476766 -0.478045 0 0 0 0 255 0
0.492835 0.494066 -0.563731 0 0 0 0 255 0
0.541399 0.511366 -0.649418 0 0 0 0 255 0
0.589963 0.528666 -0.735105 0 0 0 0 255 0
0.638527 0.545966 -0.820792 0 0 0 0 255 0
0.687091 0.563266 -0.906479 0 0 0 0 255 0
0.735656 0.580566 -0.992165 0 0 0 0 255 0
0.78422 0.597867 -1.07785 0 0 0 0 255 0
0.832784 0.615167 -1.16354 0 0 0 0 255 0
0.881348 0.632467 -1.24923 0 0 0 0 255 0
0.929912 0.649767 -1.33491 0 0 0 0 255 0
0.978476 0.667067 -1.4206 0 0 0 0 255 0
1.02704 0.684367 -1.50629 0 0 0 0 255 0
1.0756 0.701667 -1.59197 0 0 0 0 255 0
1.12417 0.718967 -1.67766 0 0 0 0 255 0
1.17273 0.736267 -1.76335 0 0 0 0 255 0
1.2213 0.753567 -1.84903 0 0 0 0 255 0
1.26986 0.770867 -1.93472 0 0 0 0 255 0
1.31842 0.788167 -2.02041 0 0 0 0 255 0
1.36699 0.805467 -2.10609 0 0 0 0 255 0
1.41555 0.822767 -2.19178 0 0 0 0 255 0
1.46412 0.840067 -2.27747 0 0 0 0 255 0
1.51268 0.857368 -2.36315 0 0 0 0 255 0
1.56125 0.874668 -2.44884 0 0 0 0 255 0
1.60981 0.891968 -2.53453 0 0 0 0 255 0
1.65837 0.909268 -2.62021 0 0 0 0 255 0
1.70694 0.926568 -2.7059 0 0 0 0 255 0
1.7555 0.943868 -2.79159 0 0 0 0 255 0
1.80407 0.961168 -2.87727 0 0 0 0 255 0
1.85263 0.978468 -2.96296 0 0 0 0 255 0
1.90119 0.995768 -3.04865 0 0 0 0 255 0
1.94976 1.01307 -3.13433 0 0 0 0 255 0
1.99832 1.03037 -3.22002 0 0 0 0 255 0
2.04689 1.04767 -3.30571 0 0 0 0 255 0
2.09545 1.06497 -3.39139 0 0 0 0 255 0
2.14401 1.08227 -3.47708 0 0 0 0 255 0
2.19258 1.09957 -3.56277 0 0 0 0 255 0
2.24114 1.11687 -3.64845 0 0 0 0 255 0
2.28971 1.13417 -3.73414 0 0 0 0 255 0
2.33827 1.15147 -3.81983 0 0 0 0 255 0
2.38683 1.16877 -3.90551 0 0 0 0 255 0
2.4354 1.18607 -3.9912 0 0 0 0 255 0
2.48396 1.20337 -4.07689 0 0 0 0 255 0
2.53253 1.22067 -4.16257 0 0 0 0 255 0
2.58109 1.23797 -4.24826 0 0 0 0 255 0
2.62966 1.25527 -4.33395 0 0 0 0 255 0
2.67822 1.27257 -4.41964 0 0 0 0 255 0
2.72678 1.28987 -4.50532 0 0 0 0 255 0
2.77535 1.30717 -4.59101 0 0 0 0 255 0
2.82391 1.32447 -4.6767 0 0 0 0 255 0
2.87248 1.34177 -4.76238 0 0 0 0 255 0
2.92104 1.35907 -4.84807 0 0 0 0 255 0
2.9696 1.37637 -4.93376 0 0 0 0 255 0
3.01817 1.39367 -5.01944 0 0 0 0 255 0
3.06673 1.41097 -5.10513 0 0 0 0 255 0
3.1153 1.42827 -5.19082 0 0 0 0 255 0
3.16386 1.44557 -5.2765 0 0 0 0 255 0
3.21242 1.46287 -5.36219 0 0 0 0 255 0
3.26099 1.48017 -5.44788 0 0 0 0 255 0
3.30955 1.49747 -5.53356 0 0 0 0 255 0
3.35812 1.51477 -5.61925 0 0 0 0 255 0
3.40668 1.53207 -5.70494 0 0 0 0 255 0
3.45524 1.54937 -5.79062 0 0 0 0 255 0
3.50381 1.56667 -5.87631 0 0 0 0 255 0
3.55237 1.58397 -5.962 0 0 0 0 255 0
3.60094 1.60127 -6.04768 0 0 0 0 255 0
3.6495 1.61857 -6.13337 0 0 0 0 255 0
3.69807 1.63587 -6.21906 0 0 0 0 255 0
3.74663 1.65317 -6.30475 0 0 0 0 255 0
3.79519 1.67047 -6.39043 0 0 0 0 255 0
3.84376 1.68777 -6.47612 0 0 0 0 255 0
3.89232 1.70507 -6.56181 0 0 0 0 255 0
3.94089 1.72237 -6.64749 0 0 0 0 255 0
3.98945 1.73967 -6.73318 0 0 0 0 255 0
4.03802 1.75697 -6.81887 0 0 0 0 255 0
4.08658 1.77427 -6.90456 0 0 0 0 255 0
4.13514 1.79157 -6.99024 0 0 0 0 255 0
4.18371 1.80887 -7.07593 0 0 0 0 255 0
4.23227 1.82617 -7.16162 0 0 0 0 255 0
4.28084 1.84347 -7.2473 0 0 0 0 255 0
4.3294 1.86077 -7.33299 0 0 0 0 255 0
4.37797 1.87807 -7.41868 0 0 0 0 255 0
4.42653 1.89537 -7.50437 0 0 0 0 255 0
0.145366 0.334378 0.235036 0 0 0 255 255 0
0.400416 3.41824 10.4211 0 0 0 0 0 255
0.392869 3.38421 10.3274 0 0 0 0 0 255
0.385322 3.35019 10.2337 0 0 0 0 0 255
0.377775 3.31616 10.1399 0 0 0 0 0 255
0.370228 3.28214 10.0462 0 0 0 0 0 255
0.362681 3.24811 9.95248 0 0 0 0 0 255
0.355134 3.21409 9.85875 0 0 0 0 0 255
0.347587 3.18006 9.76502 0 0 0 0 0 255
0.34004 3.14604 9.67129 0 0 0 0 0 255
0.332493 3.11201 9.57756 0 0 0 0 0 255
0.324946 3.07799 9.48383 0 0 0 0 0 255
0.317399 3.04396 9.3901 0 0 0 0 0 255
0.309851 3.00994 9.29636 0 0 0 0 0 255
0.302304 2.97591 9.20263 0 0 0 0 0 255
0.294757 2.94189 9.1089 0 0 0 0 0 255
0.28721 2.90787 9.01517 0 0 0 0 0 255
0.279663 2.87384 8.92144 0 0 0 0 0 255
0.272116 2.83982 8.82771 0 0 0 0 0 255
0.264569 2.80579 8.73398 0 0 0 0 0 255
0.257022 2.77177 8.64025 0 0 0 0 0 255
0.249475 2.73774 8.54652 0 0 0 0 0 255
0.241928 2.70372 8.45279 0 0 0 0 0 255
0.234381 2.66969 8.35906 0 0 0 0 0 255
0.226834 2.63567 8.26533 0 0 0 0 0 255
0.219287 2.60164 8.1716 0 0 0 0 0 255
0.21174 2.56762 8.07787 0 0 0 0 0 255
0.204193 2.53359 7.98414 0 0 0 0 0 255
0.196646 2.49957 7.89041 0 0 0 0 0 255
0.189099 2.46554 7.79668 0 0 0 0 0 255
0.181551 2.43152 7.70295 0 0 0 0 0 255
0.174004 2.39749 7.60922 0 0 0 0 0 255
0.166457 2.36347 7.51549 0 0 0 0 0 255
0.15891 2.32945 7.42176 0 0 0 0 0 255
0.151363 2.29542 7.32803 0 0 0 0 0 255
0.143816 2.2614 7.2343 0 0 0 0 0 255
0.136269 2.22737 7.14057 0 0 0 0 0 255
0.128722 2.19335 7.04684 0 0 0 0 0 255
0.121175 2.15932 6.95311 0 0 0 0 0 255
0.113628 2.1253 6.85938 0 0 0 0 0 255
0.106081 2.09127 6.76565 0 0 0 0 0 255
0.098534 2.05725 6.67192 0 0 0 0 0 255
0.0909869 2.02322 6.57819 0 0 0 0 0 255
0.0834399 1.9892 6.48446 0 0 0 0 0 255
0.0758928 1.95517 6.39073 0 0 0 0 0 255
0.0683458 1.92115 6.297 0 0 0 0 0 255
0.0607988 1.88713 6.20327 0 0 0 0 0 255
0.0532517 1.8531 6.10954 0 0 0 0 0 255
0.0457047 1.81908 6.01581 0 0 0 0 0 255
0.0381576 1.78505 5.92207 0 0 0 0 0 255
0.0306106 1.75103 5.82834 0 0 0 0 0 255
0.0230635 1.717 5.73461 0 0 0 0 0 255
0.0155165 1.68298 5.64088 0 0 0 0 0 255
0.00796946 1.64895 5.54715 0 0 0 0 0 255
0.000422414 1.61493 5.45342 0 0 0 0 0 255
-0.00712463 1.5809 5.35969 0 0 0 0 0 255
-0.0146717 1.54688 5.26596 0 0 0 0 0 255
-0.0222187 1.51285 5.17223 0 0 0 0 0 255
-0.0297658 1.47883 5.0785 0 0 0 0 0 255
-0.0373128 1.4448 4.98477 0 0 0 0 0 255
-0.0448598 1.41078 4.89104 0 0 0 0 0 255
-0.0524069 1.37676 4.79731 0 0 0 0 0 255
-0.0599539 1.34273 4.70358 0 0 0 0 0 255
-0.067501 1.30871 4.60985 0 0 0 0 0 255
-0.075048 1.27468 4.51612 0 0 0 0 0 255
-0.0825951 1.24066 4.42239 0 0 0 0 0 255
-0.0901421 1.20663 4.32866 0 0 0 0 0 255
-0.0976892 1.17261 4.23493 0 0 0 0 0 255
-0.105236 1.13858 4.1412 0 0 0 0 0 255
-0.112783 1.10456 4.04747 0 0 0 0 0 255
-0.12033 1.07053 3.95374 0 0 0 0 0 255
-0.127877 1.03651 3.86001 0 0 0 0 0 255
-0.135424 1.00248 3.76628 0 0 0 0 0 255
-0.142971 0.96846 3.67255 0 0 0 0 0 255
-0.150518 0.934435 3.57882 0 0 0 0 0 255
-0.158066 0.900411 3.48509 0 0 0 0 0 255
-0.165613 0.866386 3.39136 0 0 0 0 0 255
-0.17316 0.832361 3.29763 0 0 0 0 0 255
-0.180707 0.798337 3.2039 0 0 0 0 0 255
-0.188254 0.764312 3.11017 0 0 0 0 0 255
-0.195801 0.730287 3.01644 0 0 0 0 0 255
-0.203348 0.696263 2.92271 0 0 0 0 0 255
-0.210895 0.662238 2.82898 0 0 0 0 0 255
-0.218442 0.628213 2.73525 0 0 0 0 0 255
-0.225989 0.594189 2.64152 0 0 0 0 0 255
-0.233536 0.560164 2.54779 0 0 0 0 0 255
-0.241083 0.526139 2.45406 0 0 0 0 0 255
-0.24863 0.492115 2.36033 0 0 0 0 0 255
-0.256177 0.45809 2.2666 0 0 0 0 0 255
-0.263724 0.424065 2.17287 0 0 0 0 0 255
-0.271271 0.390041 2.07914 0 0 0 0 0 255
-0.278818 0.356016 1.98541 0 0 0 0 0 255
-0.286365 0.321991 1.89168 0 0 0 0 0 255
-0.293912 0.287967 1.79795 0 0 0 0 0 255
-0.301459 0.253942 1.70422 0 0 0 0 0 255
-0.309007 0.219917 1.61048 0 0 0 0 0 255
-0.316554 0.185893 1.51675 0 0 0 0 0 255
-0.324101 0.151868 1.42302 0 0 0 0 0 255
-0.331648 0.117843 1.32929 0 0 0 0 0 255
-0.339195 0.0838185 1.23556 0 0 0 0 0 255
-0.346742 0.0497939 1.14183 0 0 0 0 0 255
-0.354289 0.0157692 1.0481 0 0 0 0 0 255
-0.361836 -0.0182555 0.954373 0 0 0 0 0 255
-0.369383 -0.0522801 0.860643 0 0 0 0 0 255
-0.37693 -0.0863048 0.766912 0 0 0 0 0 255
-0.384477 -0.120329 0.673182 0 0 0 0 0 255
-0.392024 -0.154354 0.579452 0 0 0 0 0 255
-0.399571 -0.188379 0.485722 0 0 0 0 0 255
-0.407118 -0.222404 0.391991 0 0 0 0 0 255
-0.414665 -0.256428 0.298261 0 0 0 0 0 255
-0.422212 -0.290453 0.204531 0 0 0 0 0 255
-0.429759 -0.324478 0.110801 0 0 0 0 0 255
-0.437306 -0.358502 0.0170702 0 0 0 0 0 255
-0.444853 -0.392527 -0.0766601 0 0 0 0 0 255
-0.4524 -0.426552 -0.17039 0 0 0 0 0 255
-0.459948 -0.460576 -0.264121 0 0 0 0 0 255
-0.467495 -0.494601 -0.357851 0 0 0 0 0 255
-0.475042 -0.528626 -0.451581 0 0 0 0 0 255
-0.482589 -0.56265 -0.545312 0 0 0 0 0 255
-0.490136 -0.596675 -0.639042 0 0 0 0 0 255
-0.497683 -0.6307 -0.732772 0 0 0 0 0 255
-0.50523 -0.664724 -0.826502 0 0 0 0 0 255
-0.512777 -0.698749 -0.920233 0 0 0 0 0 255
-0.520324 -0.732774 -1.01396 0 0 0 0 0 255
-0.527871 -0.766798 -1.10769 0 0 0 0 0 255
-0.535418 -0.800823 -1.20142 0 0 0 0 0 255
-0.542965 -0.834848 -1.29515 0 0 0 0 0 255
-0.550512 -0.868872 -1.38888 0 0 0 0 0 255
-0.558059 -0.902897 -1.48261 0 0 0 0 0 255
-0.565606 -0.936922 -1.57634 0 0 0 0 0 255
-0.573153 -0.970946 -1.67007 0 0 0 0 0 255
-0.5807 -1.00497 -1.7638 0 0 0 0 0 255
-0.588247 -1.039 -1.85753 0 0 0 0 0 255
-0.595794 -1.07302 -1.95126 0 0 0 0 0 255
-0.603341 -1.10704 -2.04499 0 0 0 0 0 255
-0.610888 -1.14107 -2.13872 0 0 0 0 0 255
-0.618435 -1.17509 -2.23246 0 0 0 0 0 255
-0.625983 -1.20912 -2.32619 0 0 0 0 0 255
-0.63353 -1.24314 -2.41992 0 0 0 0 0 255
-0.641077 -1.27717 -2.51365 0 0 0 0 0 255
-0.648624 -1.31119 -2.60738 0 0 0 0 0 255
-0.656171 -1.34522 -2.70111 0 0 0 0 0 255
-0.663718 -1.37924 -2.79484 0 0 0 0 0 255
-0.671265 -1.41327 -2.88857 0 0 0 0 0 255
-0.678812 -1.44729 -2.9823 0 0 0 0 0 255
-0.686359 -1.48132 -3.07603 0 0 0 0 0 255
