ply
format ascii 1.0
element vertex 1122
property float x
property float y
property float z
property float nx
property float ny
property float nz
property uchar red
property uchar green
property uchar blue
end_header
1.7927 0.829526 -1.9284 0 0 0 0 255 0
1.85112 0.846675 -2.00773 0 0 0 0 255 0
1.90954 0.863823 -2.08706 0 0 0 0 255 0
1.96796 0.880972 -2.16638 0 0 0 0 255 0
2.02638 0.89812 -2.24571 0 0 0 0 255 0
2.0848 0.915269 -2.32504 0 0 0 0 255 0
2.14322 0.932418 -2.40437 0 0 0 0 255 0
2.20164 0.949566 -2.4837 0 0 0 0 255 0
2.26005 0.966715 -2.56303 0 0 0 0 255 0
2.31847 0.983863 -2.64236 0 0 0 0 255 0
2.37689 1.00101 -2.72169 0 0 0 0 255 0
2.43531 1.01816 -2.80102 0 0 0 0 255 0
2.49373 1.03531 -2.88035 0 0 0 0 255 0
2.55215 1.05246 -2.95968 0 0 0 0 255 0
2.61057 1.06961 -3.03901 0 0 0 0 255 0
2.66899 1.08675 -3.11834 0 0 0 0 255 0
2.7274 1.1039 -3.19767 0 0 0 0 255 0
2.78582 1.12105 -3.277 0 0 0 0 255 0
2.84424 1.1382 -3.35633 0 0 0 0 255 0
2.90266 1.15535 -3.43566 0 0 0 0 255 0
2.96108 1.1725 -3.51498 0 0 0 0 255 0
3.0195 1.18965 -3.59431 0 0 0 0 255 0
3.07792 1.2068 -3.67364 0 0 0 0 255 0
3.13634 1.22394 -3.75297 0 0 0 0 255 0
3.19475 1.24109 -3.8323 0 0 0 0 255 0
3.25317 1.25824 -3.91163 0 0 0 0 255 0
3.31159 1.27539 -3.99096 0 0 0 0 255 0
3.37001 1.29254 -4.07029 0 0 0 0 255 0
3.42843 1.30969 -4.14962 0 0 0 0 255 0
3.48685 1.32684 -4.22895 0 0 0 0 255 0
3.54527 1.34398 -4.30828 0 0 0 0 255 0
3.60369 1.36113 -4.38761 0 0 0 0 255 0
3.6621 1.37828 -4.46694 0 0 0 0 255 0
3.72052 1.39543 -4.54627 0 0 0 0 255 0
3.77894 1.41258 -4.6256 0 0 0 0 255 0
3.83736 1.42973 -4.70493 0 0 0 0 255 0
3.89578 1.44688 -4.78426 0 0 0 0 255 0
3.9542 1.46402 -4.86358 0 0 0 0 255 0
4.01262 1.48117 -4.94291 0 0 0 0 255 0
4.07104 1.49832 -5.02224 0 0 0 0 255 0
4.12945 1.51547 -5.10157 0 0 0 0 255 0
4.18787 1.53262 -5.1809 0 0 0 0 255 0
4.24629 1.54977 -5.26023 0 0 0 0 255 0
4.30471 1.56692 -5.33956 0 0 0 0 255 0
4.36313 1.58406 -5.41889 0 0 0 0 255 0
4.42155 1.60121 -5.49822 0 0 0 0 255 0
4.47997 1.61836 -5.57755 0 0 0 0 255 0
4.53839 1.63551 -5.65688 0 0 0 0 255 0
4.59681 1.65266 -5.73621 0 0 0 0 255 0
4.65523 1.66981 -5.81554 0 0 0 0 255 0
4.71364 1.68696 -5.89487 0 0 0 0 255 0
4.77206 1.70411 -5.9742 0 0 0 0 255 0
4.83048 1.72125 -6.05353 0 0 0 0 255 0
4.8889 1.7384 -6.13286 0 0 0 0 255 0
4.94732 1.75555 -6.21219 0 0 0 0 255 0
5.00574 1.7727 -6.29152 0 0 0 0 255 0
5.06416 1.78985 -6.37085 0 0 0 0 255 0
5.12258 1.807 -6.45018 0 0 0 0 255 0
0.170948 0.341617 0.408551 0 0 0 255 255 0
0.33498 -0.926144 11.102 0 0 0 0 0 255
0.328145 -0.916867 11.0026 0 0 0 0 0 255
0.321309 -0.907589 10.9033 0 0 0 0 0 255
0.314474 -0.898312 10.804 0 0 0 0 0 255
0.307639 -0.889034 10.7046 0 0 0 0 0 255
0.300803 -0.879756 10.6053 0 0 0 0 0 255
0.293968 -0.870479 10.506 0 0 0 0 0 255
0.287132 -0.861201 10.4066 0 0 0 0 0 255
0.280297 -0.851924 10.3073 0 0 0 0 0 255
0.273461 -0.842646 10.2079 0 0 0 0 0 255
0.266626 -0.833368 10.1086 0 0 0 0 0 255
0.259791 -0.824091 10.0093 0 0 0 0 0 255
0.252955 -0.814813 9.90995 0 0 0 0 0 255
0.24612 -0.805535 9.81061 0 0 0 0 0 255
0.239284 -0.796258 9.71128 0 0 0 0 0 255
0.232449 -0.78698 9.61194 0 0 0 0 0 255
0.225613 -0.777703 9.51261 0 0 0 0 0 255
0.218778 -0.768425 9.41327 0 0 0 0 0 255
0.211943 -0.759147 9.31394 0 0 0 0 0 255
0.205107 -0.74987 9.21461 0 0 0 0 0 255
0.198272 -0.740592 9.11527 0 0 0 0 0 255
0.191436 -0.731315 9.01594 0 0 0 0 0 255
0.184601 -0.722037 8.9166 0 0 0 0 0 255
0.177766 -0.712759 8.81727 0 0 0 0 0 255
0.17093 -0.703482 8.71794 0 0 0 0 0 255
0.164095 -0.694204 8.6186 0 0 0 0 0 255
0.157259 -0.684927 8.51927 0 0 0 0 0 255
0.150424 -0.675649 8.41994 0 0 0 0 0 255
0.143589 -0.666372 8.3206 0 0 0 0 0 255
0.136753 -0.657094 8.22127 0 0 0 0 0 255
0.129918 -0.647816 8.12193 0 0 0 0 0 255
0.123082 -0.638539 8.0226 0 0 0 0 0 255
0.116247 -0.629261 7.92327 0 0 0 0 0 255
0.109412 -0.619984 7.82393 0 0 0 0 0 255
0.102576 -0.610706 7.7246 0 0 0 0 0 255
0.0957408 -0.601429 7.62527 0 0 0 0 0 255
0.0889054 -0.592151 7.52593 0 0 0 0 0 255
0.08207 -0.582873 7.4266 0 0 0 0 0 255
0.0752346 -0.573596 7.32727 0 0 0 0 0 255
0.0683992 -0.564318 7.22793 0 0 0 0 0 255
0.0615638 -0.555041 7.1286 0 0 0 0 0 255
0.0547284 -0.545763 7.02926 0 0 0 0 0 255
0.047893 -0.536486 6.92993 0 0 0 0 0 255
0.0410576 -0.527208 6.8306 0 0 0 0 0 255
0.0342222 -0.51793 6.73126 0 0 0 0 0 255
0.0273868 -0.508653 6.63193 0 0 0 0 0 255
0.0205515 -0.499375 6.5326 0 0 0 0 0 255
0.0137161 -0.490098 6.43326 0 0 0 0 0 255
0.00688066 -0.48082 6.33393 0 0 0 0 0 255
4.52627e-05 -0.471543 6.23459 0 0 0 0 0 255
-0.00679013 -0.462265 6.13526 0 0 0 0 0 255
-0.0136255 -0.452987 6.03593 0 0 0 0 0 255
-0.0204609 -0.44371 5.93659 0 0 0 0 0 255
-0.0272963 -0.434432 5.83726 0 0 0 0 0 255
-0.0341317 -0.425155 5.73793 0 0 0 0 0 255
-0.0409671 -0.415877 5.63859 0 0 0 0 0 255
-0.0478025 -0.4066 5.53926 0 0 0 0 0 255
-0.0546379 -0.397322 5.43992 0 0 0 0 0 255
-0.0614733 -0.388044 5.34059 0 0 0 0 0 255
-0.0683087 -0.378767 5.24126 0 0 0 0 0 255
-0.0751441 -0.369489 5.14192 0 0 0 0 0 255
-0.0819795 -0.360212 5.04259 0 0 0 0 0 255
-0.0888149 -0.350934 4.94326 0 0 0 0 0 255
-0.0956503 -0.341657 4.84392 0 0 0 0 0 255
-0.102486 -0.332379 4.74459 0 0 0 0 0 255
-0.109321 -0.323101 4.64526 0 0 0 0 0 255
-0.116156 -0.313824 4.54592 0 0 0 0 0 255
-0.122992 -0.304546 4.44659 0 0 0 0 0 255
-0.129827 -0.295269 4.34725 0 0 0 0 0 255
-0.136663 -0.285991 4.24792 0 0 0 0 0 255
-0.143498 -0.276714 4.14859 0 0 0 0 0 255
-0.150333 -0.267436 4.04925 0 0 0 0 0 255
-0.157169 -0.258158 3.94992 0 0 0 0 0 255
-0.164004 -0.248881 3.85059 0 0 0 0 0 255
-0.17084 -0.239603 3.75125 0 0 0 0 0 255
-0.177675 -0.230326 3.65192 0 0 0 0 0 255
-0.18451 -0.221048 3.55258 0 0 0 0 0 255
-0.191346 -0.211771 3.45325 0 0 0 0 0 255
-0.198181 -0.202493 3.35392 0 0 0 0 0 255
-0.205017 -0.193215 3.25458 0 0 0 0 0 255
-0.211852 -0.183938 3.15525 0 0 0 0 0 255
-0.218687 -0.17466 3.05592 0 0 0 0 0 255
-0.225523 -0.165383 2.95658 0 0 0 0 0 255
-0.232358 -0.156105 2.85725 0 0 0 0 0 255
-0.239194 -0.146828 2.75791 0 0 0 0 0 255
-0.246029 -0.13755 2.65858 0 0 0 0 0 255
-0.252864 -0.128272 2.55925 0 0 0 0 0 255
-0.2597 -0.118995 2.45991 0 0 0 0 0 255
-0.266535 -0.109717 2.36058 0 0 0 0 0 255
-0.273371 -0.10044 2.26124 0 0 0 0 0 255
-0.280206 -0.091162 2.16191 0 0 0 0 0 255
-0.287041 -0.0818844 2.06258 0 0 0 0 0 255
-0.293877 -0.0726068 1.96324 0 0 0 0 0 255
-0.300712 -0.0633292 1.86391 0 0 0 0 0 255
-0.307548 -0.0540517 1.76458 0 0 0 0 0 255
-0.314383 -0.0447741 1.66524 0 0 0 0 0 255
-0.321219 -0.0354965 1.56591 0 0 0 0 0 255
-0.328054 -0.0262189 1.46657 0 0 0 0 0 255
-0.334889 -0.0169413 1.36724 0 0 0 0 0 255
-0.341725 -0.00766376 1.26791 0 0 0 0 0 255
-0.34856 0.00161382 1.16857 0 0 0 0 0 255
-0.355396 0.0108914 1.06924 0 0 0 0 0 255
-0.362231 0.020169 0.969905 0 0 0 0 0 255
-0.369066 0.0294466 0.870572 0 0 0 0 0 255
-0.375902 0.0387241 0.771238 0 0 0 0 0 255
-0.382737 0.0480017 0.671904 0 0 0 0 0 255
-0.389573 0.0572793 0.57257 0 0 0 0 0 255
-0.396408 0.0665569 0.473236 0 0 0 0 0 255
-0.403243 0.0758345 0.373902 0 0 0 0 0 255
-0.410079 0.0851121 0.274569 0 0 0 0 0 255
-0.416914 0.0943896 0.175235 0 0 0 0 0 255
-0.42375 0.103667 0.075901 0 0 0 0 0 255
-0.430585 0.112945 -0.0234328 0 0 0 0 0 255
-0.43742 0.122222 -0.122767 0 0 0 0 0 255
-0.444256 0.1315 -0.2221 0 0 0 0 0 255
-0.451091 0.140778 -0.321434 0 0 0 0 0 255
-0.457927 0.150055 -0.420768 0 0 0 0 0 255
-0.464762 0.159333 -0.520102 0 0 0 0 0 255
-0.471597 0.16861 -0.619436 0 0 0 0 0 255
-0.478433 0.177888 -0.71877 0 0 0 0 0 255
-0.485268 0.187165 -0.818103 0 0 0 0 0 255
-0.492104 0.196443 -0.917437 0 0 0 0 0 255
-0.498939 0.205721 -1.01677 0 0 0 0 0 255
-0.505774 0.214998 -1.1161 0 0 0 0 0 255
-0.51261 0.224276 -1.21544 0 0 0 0 0 255
-0.519445 0.233553 -1.31477 0 0 0 0 0 255
-0.526281 0.242831 -1.41411 0 0 0 0 0 255
-0.533116 0.252108 -1.51344 0 0 0 0 0 255
-0.539951 0.261386 -1.61277 0 0 0 0 0 255
-0.546787 0.270664 -1.71211 0 0 0 0 0 255
-0.553622 0.279941 -1.81144 0 0 0 0 0 255
-0.560458 0.289219 -1.91077 0 0 0 0 0 255
-0.567293 0.298496 -2.01011 0 0 0 0 0 255
-0.574128 0.307774 -2.10944 0 0 0 0 0 255
-0.580964 0.317051 -2.20878 0 0 0 0 0 255
-0.587799 0.326329 -2.30811 0 0 0 0 0 255
-0.594635 0.335607 -2.40744 0 0 0 0 0 255
-0.60147 0.344884 -2.50678 0 0 0 0 0 255
-0.608305 0.354162 -2.60611 0 0 0 0 0 255
-0.615141 0.363439 -2.70544 0 0 0 0 0 255
-0.621976 0.372717 -2.80478 0 0 0 0 0 255
-0.628812 0.381995 -2.90411 0 0 0 0 0 255
-0.635647 0.391272 -3.00345 0 0 0 0 0 255
-0.642482 0.40055 -3.10278 0 0 0 0 0 255
-0.649318 0.409827 -3.20211 0 0 0 0 0 255
-0.656153 0.419105 -3.30145 0 0 0 0 0 255
-0.662989 0.428382 -3.40078 0 0 0 0 0 255
-0.669824 0.43766 -3.50011 0 0 0 0 0 255
-0.676659 0.446938 -3.59945 0 0 0 0 0 255
-0.683495 0.456215 -3.69878 0 0 0 0 0 255
-0.69033 0.465493 -3.79811 0 0 0 0 0 255
-0.697166 0.47477 -3.89745 0 0 0 0 0 255
-0.704001 0.484048 -3.99678 0 0 0 0 0 255
-0.710836 0.493325 -4.09612 0 0 0 0 0 255
-0.717672 0.502603 -4.19545 0 0 0 0 0 255
-0.724507 0.511881 -4.29478 0 0 0 0 0 255
-0.731343 0.521158 -4.39412 0 0 0 0 0 255
-0.738178 0.530436 -4.49345 0 0 0 0 0 255
-0.745013 0.539713 -4.59278 0 0 0 0 0 255
-0.751849 0.548991 -4.69212 0 0 0 0 0 255
-0.758684 0.558268 -4.79145 0 0 0 0 0 255
-0.76552 0.567546 -4.89079 0 0 0 0 0 255
-0.772355 0.576824 -4.99012 0 0 0 0 0 255
-0.77919 0.586101 -5.08945 0 0 0 0 0 255
-0.786026 0.595379 -5.18879 0 0 0 0 0 255
-0.792861 0.604656 -5.28812 0 0 0 0 0 255
-0.799696 0.613934 -5.38745 0 0 0 0 0 255
-0.806532 0.623211 -5.48679 0 0 0 0 0 255
-0.813367 0.632489 -5.58612 0 0 0 0 0 255
-0.820203 0.641767 -5.68546 0 0 0 0 0 255
-0.827038 0.651044 -5.78479 0 0 0 0 0 255
-0.833873 0.660322 -5.88412 0 0 0 0 0 255
-0.840709 0.669599 -5.98346 0 0 0 0 0 255
-0.847544 0.678877 -6.08279 0 0 0 0 0 255
-0.85438 0.688154 -6.18212 0 0 0 0 0 255
-0.861215 0.697432 -6.28146 0 0 0 0 0 255
-0.86805 0.70671 -6.38079 0 0 0 0 0 255
-0.874886 0.715987 -6.48013 0 0 0 0 0 255
-0.881721 0.725265 -6.57946 0 0 0 0 0 255
-0.888557 0.734542 -6.67879 0 0 0 0 0 255
-0.895392 0.74382 -6.77813 0 0 0 0 0 255
-0.902227 0.753097 -6.87746 0 0 0 0 0 255
-0.909063 0.762375 -6.97679 0 0 0 0 0 255
-0.915898 0.771653 -7.07613 0 0 0 0 0 255
-0.922734 0.78093 -7.17546 0 0 0 0 0 255
-0.929569 0.790208 -7.2748 0 0 0 0 0 255
-0.936405 0.799486 -7.37413 0 0 0 0 0 255
-0.94324 0.808763 -7.47347 0 0 0 0 0 255
-0.950075 0.818041 -7.5728 0 0 0 0 0 255
-0.956911 0.827318 -7.67213 0 0 0 0 0 255
-0.963746 0.836596 -7.77147 0 0 0 0 0 255
-0.970582 0.845874 -7.8708 0 0 0 0 0 255
-0.977417 0.855151 -7.97014 0 0 0 0 0 255
-0.984253 0.864429 -8.06947 0 0 0 0 0 255
-0.991088 0.873706 -8.1688 0 0 0 0 0 255
-0.997923 0.882984 -8.26814 0 0 0 0 0 255
-1.00476 0.892262 -8.36747 0 0 0 0 0 255
-1.01159 0.901539 -8.46681 0 0 0 0 0 255
-1.01843 0.910817 -8.56614 0 0 0 0 0 255
-1.02527 0.920095 -8.66548 0 0 0 0 0 255
5.50175 -0.454309 9.49955 0 0 0 0 0 255
5.44862 -0.449251 9.41498 0 0 0 0 0 255
5.39549 -0.444194 9.33041 0 0 0 0 0 255
5.34236 -0.439136 9.24584 0 0 0 0 0 255
5.28923 -0.434078 9.16128 0 0 0 0 0 255
5.2361 -0.42902 9.07671 0 0 0 0 0 255
5.18297 -0.423962 8.99214 0 0 0 0 0 255
5.12984 -0.418905 8.90757 0 0 0 0 0 255
5.07671 -0.413847 8.82301 0 0 0 0 0 255
5.02358 -0.408789 8.73844 0 0 0 0 0 255
4.97045 -0.403731 8.65387 0 0 0 0 0 255
4.91732 -0.398674 8.5693 0 0 0 0 0 255
4.8642 -0.393616 8.48473 0 0 0 0 0 255
4.81107 -0.388558 8.40017 0 0 0 0 0 255
4.75794 -0.3835 8.3156 0 0 0 0 0 255
4.70481 -0.378442 8.23103 0 0 0 0 0 255
4.65168 -0.373385 8.14646 0 0 0 0 0 255
4.59855 -0.368327 8.06189 0 0 0 0 0 255
4.54542 -0.363269 7.97733 0 0 0 0 0 255
4.49229 -0.358211 7.89276 0 0 0 0 0 255
4.43916 -0.353153 7.80819 0 0 0 0 0 255
4.38603 -0.348096 7.72362 0 0 0 0 0 255
4.3329 -0.343038 7.63906 0 0 0 0 0 255
4.27977 -0.33798 7.55449 0 0 0 0 0 255
4.22664 -0.332922 7.46992 0 0 0 0 0 255
4.17351 -0.327865 7.38535 0 0 0 0 0 255
4.12038 -0.322807 7.30079 0 0 0 0 0 255
4.06725 -0.317749 7.21622 0 0 0 0 0 255
4.01412 -0.312691 7.13165 0 0 0 0 0 255
3.96099 -0.307634 7.04708 0 0 0 0 0 255
3.90786 -0.302576 6.96252 0 0 0 0 0 255
3.85473 -0.297518 6.87795 0 0 0 0 0 255
3.8016 -0.29246 6.79338 0 0 0 0 0 255
3.74847 -0.287403 6.70882 0 0 0 0 0 255
3.69534 -0.282345 6.62425 0 0 0 0 0 255
3.64221 -0.277287 6.53968 0 0 0 0 0 255
3.58908 -0.272229 6.45511 0 0 0 0 0 255
3.53595 -0.267171 6.37055 0 0 0 0 0 255
3.48282 -0.262114 6.28598 0 0 0 0 0 255
3.4297 -0.257056 6.20141 0 0 0 0 0 255
3.37657 -0.251998 6.11684 0 0 0 0 0 255
3.32344 -0.24694 6.03228 0 0 0 0 0 255
3.27031 -0.241883 5.94771 0 0 0 0 0 255
3.21718 -0.236825 5.86314 0 0 0 0 0 255
3.16405 -0.231767 5.77857 0 0 0 0 0 255
3.11092 -0.226709 5.69401 0 0 0 0 0 255
3.05779 -0.221652 5.60944 0 0 0 0 0 255
3.00466 -0.216594 5.52487 0 0 0 0 0 255
2.95153 -0.211536 5.4403 0 0 0 0 0 255
2.8984 -0.206478 5.35574 0 0 0 0 0 255
2.84527 -0.201421 5.27117 0 0 0 0 0 255
2.79214 -0.196363 5.1866 0 0 0 0 0 255
2.73901 -0.191305 5.10203 0 0 0 0 0 255
2.68588 -0.186247 5.01747 0 0 0 0 0 255
2.63275 -0.181189 4.9329 0 0 0 0 0 255
2.57962 -0.176132 4.84833 0 0 0 0 0 255
2.52649 -0.171074 4.76376 0 0 0 0 0 255
2.47336 -0.166016 4.6792 0 0 0 0 0 255
2.42023 -0.160958 4.59463 0 0 0 0 0 255
2.3671 -0.155901 4.51006 0 0 0 0 0 255
2.31397 -0.150843 4.42549 0 0 0 0 0 255
2.26084 -0.145785 4.34093 0 0 0 0 0 255
2.20772 -0.140727 4.25636 0 0 0 0 0 255
2.15459 -0.13567 4.17179 0 0 0 0 0 255
2.10146 -0.130612 4.08723 0 0 0 0 0 255
2.04833 -0.125554 4.00266 0 0 0 0 0 255
1.9952 -0.120496 3.91809 0 0 0 0 0 255
1.94207 -0.115439 3.83352 0 0 0 0 0 255
1.88894 -0.110381 3.74896 0 0 0 0 0 255
1.83581 -0.105323 3.66439 0 0 0 0 0 255
1.78268 -0.100265 3.57982 0 0 0 0 0 255
1.72955 -0.0952075 3.49525 0 0 0 0 0 255
1.67642 -0.0901497 3.41069 0 0 0 0 0 255
1.62329 -0.0850919 3.32612 0 0 0 0 0 255
1.57016 -0.0800342 3.24155 0 0 0 0 0 255
1.51703 -0.0749764 3.15698 0 0 0 0 0 255
1.4639 -0.0699186 3.07242 0 0 0 0 0 255
1.41077 -0.0648609 2.98785 0 0 0 0 0 255
1.35764 -0.0598031 2.90328 0 0 0 0 0 255
1.30451 -0.0547453 2.81871 0 0 0 0 0 255
1.25138 -0.0496876 2.73415 0 0 0 0 0 255
1.19825 -0.0446298 2.64958 0 0 0 0 0 255
1.14512 -0.039572 2.56501 0 0 0 0 0 255
1.09199 -0.0345143 2.48044 0 0 0 0 0 255
1.03886 -0.0294565 2.39588 0 0 0 0 0 255
0.985735 -0.0243987 2.31131 0 0 0 0 0 255
0.932605 -0.019341 2.22674 0 0 0 0 0 255
0.879476 -0.0142832 2.14217 0 0 0 0 0 255
0.826346 -0.00922541 2.05761 0 0 0 0 0 255
0.773216 -0.00416764 1.97304 0 0 0 0 0 255
0.720087 0.000890129 1.88847 0 0 0 0 0 255
0.666957 0.0059479 1.8039 0 0 0 0 0 255
0.613827 0.0110057 1.71934 0 0 0 0 0 255
0.560698 0.0160634 1.63477 0 0 0 0 0 255
0.507568 0.0211212 1.5502 0 0 0 0 0 255
0.454439 0.026179 1.46563 0 0 0 0 0 255
0.401309 0.0312368 1.38107 0 0 0 0 0 255
0.348179 0.0362945 1.2965 0 0 0 0 0 255
0.29505 0.0413523 1.21193 0 0 0 0 0 255
0.24192 0.0464101 1.12736 0 0 0 0 0 255
0.188791 0.0514678 1.0428 0 0 0 0 0 255
0.135661 0.0565256 0.958228 0 0 0 0 0 255
0.0825313 0.0615834 0.873661 0 0 0 0 0 255
0.0294017 0.0666411 0.789093 0 0 0 0 0 255
-0.0237279 0.0716989 0.704526 0 0 0 0 0 255
-0.0768576 0.0767567 0.619958 0 0 0 0 0 255
-0.129987 0.0818144 0.535391 0 0 0 0 0 255
-0.183117 0.0868722 0.450823 0 0 0 0 0 255
-0.236246 0.09193 0.366256 0 0 0 0 0 255
-0.289376 0.0969878 0.281688 0 0 0 0 0 255
-0.342506 0.102046 0.197121 0 0 0 0 0 255
-0.395635 0.107103 0.112553 0 0 0 0 0 255
-0.448765 0.112161 0.0279857 0 0 0 0 0 255
-0.501895 0.117219 -0.0565818 0 0 0 0 0 255
-0.555024 0.122277 -0.141149 0 0 0 0 0 255
-0.608154 0.127334 -0.225717 0 0 0 0 0 255
-0.661283 0.132392 -0.310284 0 0 0 0 0 255
-0.714413 0.13745 -0.394852 0 0 0 0 0 255
-0.767543 0.142508 -0.479419 0 0 0 0 0 255
-0.820672 0.147565 -0.563987 0 0 0 0 0 255
-0.873802 0.152623 -0.648554 0 0 0 0 0 255
-0.926931 0.157681 -0.733122 0 0 0 0 0 255
-0.980061 0.162739 -0.817689 0 0 0 0 0 255
-1.03319 0.167797 -0.902257 0 0 0 0 0 255
-1.08632 0.172854 -0.986824 0 0 0 0 0 255
-1.13945 0.177912 -1.07139 0 0 0 0 0 255
-1.19258 0.18297 -1.15596 0 0 0 0 0 255
-1.24571 0.188028 -1.24053 0 0 0 0 0 255
-1.29884 0.193085 -1.32509 0 0 0 0 0 255
-1.35197 0.198143 -1.40966 0 0 0 0 0 255
-1.4051 0.203201 -1.49423 0 0 0 0 0 255
-1.45823 0.208259 -1.5788 0 0 0 0 0 255
-1.51136 0.213316 -1.66336 0 0 0 0 0 255
-1.56449 0.218374 -1.74793 0 0 0 0 0 255
-1.61762 0.223432 -1.8325 0 0 0 0 0 255
-1.67075 0.22849 -1.91707 0 0 0 0 0 255
-1.72387 0.233547 -2.00163 0 0 0 0 0 255
-1.777 0.238605 -2.0862 0 0 0 0 0 255
-1.83013 0.243663 -2.17077 0 0 0 0 0 255
-1.88326 0.248721 -2.25534 0 0 0 0 0 255
-1.93639 0.253779 -2.3399 0 0 0 0 0 255
-1.98952 0.258836 -2.42447 0 0 0 0 0 255
-2.04265 0.263894 -2.50904 0 0 0 0 0 255
-2.09578 0.268952 -2.59361 0 0 0 0 0 255
-2.14891 0.27401 -2.67817 0 0 0 0 0 255
-2.20204 0.279067 -2.76274 0 0 0 0 0 255
-2.25517 0.284125 -2.84731 0 0 0 0 0 255
-2.3083 0.289183 -2.93188 0 0 0 0 0 255
-2.36143 0.294241 -3.01644 0 0 0 0 0 255
-2.41456 0.299298 -3.10101 0 0 0 0 0 255
-2.46769 0.304356 -3.18558 0 0 0 0 0 255
-2.52082 0.309414 -3.27014 0 0 0 0 0 255
-2.57395 0.314472 -3.35471 0 0 0 0 0 255
-2.62708 0.319529 -3.43928 0 0 0 0 0 255
-2.68021 0.324587 -3.52385 0 0 0 0 0 255
-2.73334 0.329645 -3.60841 0 0 0 0 0 255
-2.78647 0.334703 -3.69298 0 0 0 0 0 255
-2.8396 0.339761 -3.77755 0 0 0 0 0 255
-2.89273 0.344818 -3.86212 0 0 0 0 0 255
-2.94585 0.349876 -3.94668 0 0 0 0 0 255
-2.99898 0.354934 -4.03125 0 0 0 0 0 255
-3.05211 0.359992 -4.11582 0 0 0 0 0 255
-3.10524 0.365049 -4.20039 0 0 0 0 0 255
-3.15837 0.370107 -4.28495 0 0 0 0 0 255
-3.2115 0.375165 -4.36952 0 0 0 0 0 255
-3.26463 0.380223 -4.45409 0 0 0 0 0 255
-3.31776 0.38528 -4.53866 0 0 0 0 0 255
-3.37089 0.390338 -4.62322 0 0 0 0 0 255
-3.42402 0.395396 -4.70779 0 0 0 0 0 255
-3.47715 0.400454 -4.79236 0 0 0 0 0 255
-3.53028 0.405511 -4.87693 0 0 0 0 0 255
-3.58341 0.410569 -4.96149 0 0 0 0 0 255
-3.63654 0.415627 -5.04606 0 0 0 0 0 255
-3.68967 0.420685 -5.13063 0 0 0 0 0 255
-3.7428 0.425743 -5.2152 0 0 0 0 0 255
-3.79593 0.4308 -5.29976 0 0 0 0 0 255
-3.84906 0.435858 -5.38433 0 0 0 0 0 255
-3.90219 0.440916 -5.4689 0 0 0 0 0 255
-3.95532 0.445974 -5.55347 0 0 0 0 0 255
-4.00845 0.451031 -5.63803 0 0 0 0 0 255
-4.06158 0.456089 -5.7226 0 0 0 0 0 255
-4.11471 0.461147 -5.80717 0 0 0 0 0 255
-4.16784 0.466205 -5.89174 0 0 0 0 0 255
-4.22096 0.471262 -5.9763 0 0 0 0 0 255
-4.27409 0.47632 -6.06087 0 0 0 0 0 255
-4.32722 0.481378 -6.14544 0 0 0 0 0 255
-4.38035 0.486436 -6.23001 0 0 0 0 0 255
-4.43348 0.491494 -6.31457 0 0 0 0 0 255
-4.48661 0.496551 -6.39914 0 0 0 0 0 255
-4.53974 0.501609 -6.48371 0 0 0 0 0 255
-4.59287 0.506667 -6.56828 0 0 0 0 0 255
-4.646 0.511725 -6.65285 0 0 0 0 0 255
-4.69913 0.516783 -6.73741 0 0 0 0 0 255
-4.75226 0.52184 -6.82198 0 0 0 0 0 255
-4.80539 0.526898 -6.90655 0 0 0 0 0 255
-4.85852 0.531956 -6.99112 0 0 0 0 0 255
-4.91165 0.537014 -7.07568 0 0 0 0 0 255
-4.96478 0.542072 -7.16025 0 0 0 0 0 255
-5.01791 0.547129 -7.24482 0 0 0 0 0 255
-5.07104 0.552187 -7.32939 0 0 0 0 0 255
-4.66117 -1.24832 10.4823 0 0 0 0 0 255
-4.62215 -1.23567 10.3911 0 0 0 0 0 255
-4.58312 -1.22302 10.2999 0 0 0 0 0 255
-4.5441 -1.21037 10.2087 0 0 0 0 0 255
-4.50507 -1.19772 10.1175 0 0 0 0 0 255
-4.46604 -1.18507 10.0263 0 0 0 0 0 255
-4.42702 -1.17241 9.93509 0 0 0 0 0 255
-4.38799 -1.15976 9.84389 0 0 0 0 0 255
-4.34897 -1.14711 9.7527 0 0 0 0 0 255
-4.30994 -1.13446 9.6615 0 0 0 0 0 255
-4.27092 -1.12181 9.5703 0 0 0 0 0 255
-4.23189 -1.10916 9.4791 0 0 0 0 0 255
-4.19286 -1.09651 9.3879 0 0 0 0 0 255
-4.15384 -1.08386 9.29671 0 0 0 0 0 255
-4.11481 -1.07121 9.20551 0 0 0 0 0 255
-4.07579 -1.05856 9.11431 0 0 0 0 0 255
-4.03676 -1.04591 9.02311 0 0 0 0 0 255
-3.99774 -1.03326 8.93192 0 0 0 0 0 255
-3.95871 -1.02061 8.84072 0 0 0 0 0 255
-3.91968 -1.00796 8.74952 0 0 0 0 0 255
-3.88066 -0.995305 8.65832 0 0 0 0 0 255
-3.84163 -0.982654 8.56713 0 0 0 0 0 255
-3.80261 -0.970003 8.47593 0 0 0 0 0 255
-3.76358 -0.957353 8.38473 0 0 0 0 0 255
-3.72456 -0.944702 8.29353 0 0 0 0 0 255
-3.68553 -0.932051 8.20234 0 0 0 0 0 255
-3.64651 -0.919401 8.11114 0 0 0 0 0 255
-3.60748 -0.90675 8.01994 0 0 0 0 0 255
-3.56845 -0.894099 7.92874 0 0 0 0 0 255
-3.52943 -0.881449 7.83755 0 0 0 0 0 255
-3.4904 -0.868798 7.74635 0 0 0 0 0 255
-3.45138 -0.856147 7.65515 0 0 0 0 0 255
-3.41235 -0.843497 7.56395 0 0 0 0 0 255
-3.37333 -0.830846 7.47276 0 0 0 0 0 255
-3.3343 -0.818195 7.38156 0 0 0 0 0 255
-3.29528 -0.805544 7.29036 0 0 0 0 0 255
-3.25625 -0.792894 7.19917 0 0 0 0 0 255
-3.21722 -0.780243 7.10797 0 0 0 0 0 255
-3.1782 -0.767592 7.01677 0 0 0 0 0 255
-3.13917 -0.754942 6.92557 0 0 0 0 0 255
-3.10015 -0.742291 6.83438 0 0 0 0 0 255
-3.06112 -0.72964 6.74318 0 0 0 0 0 255
-3.0221 -0.71699 6.65198 0 0 0 0 0 255
-2.98307 -0.704339 6.56078 0 0 0 0 0 255
-2.94405 -0.691688 6.46959 0 0 0 0 0 255
-2.90502 -0.679038 6.37839 0 0 0 0 0 255
-2.866 -0.666387 6.28719 0 0 0 0 0 255
-2.82697 -0.653736 6.196 0 0 0 0 0 255
-2.78794 -0.641086 6.1048 0 0 0 0 0 255
-2.74892 -0.628435 6.0136 0 0 0 0 0 255
-2.70989 -0.615784 5.9224 0 0 0 0 0 255
-2.67087 -0.603134 5.83121 0 0 0 0 0 255
-2.63184 -0.590483 5.74001 0 0 0 0 0 255
-2.59282 -0.577832 5.64881 0 0 0 0 0 255
-2.55379 -0.565182 5.55761 0 0 0 0 0 255
-2.51477 -0.552531 5.46642 0 0 0 0 0 255
-2.47574 -0.53988 5.37522 0 0 0 0 0 255
-2.43671 -0.52723 5.28402 0 0 0 0 0 255
-2.39769 -0.514579 5.19282 0 0 0 0 0 255
-2.35866 -0.501928 5.10163 0 0 0 0 0 255
-2.31964 -0.489278 5.01043 0 0 0 0 0 255
-2.28061 -0.476627 4.91923 0 0 0 0 0 255
-2.24159 -0.463976 4.82804 0 0 0 0 0 255
-2.20256 -0.451325 4.73684 0 0 0 0 0 255
-2.16354 -0.438675 4.64564 0 0 0 0 0 255
-2.12451 -0.426024 4.55444 0 0 0 0 0 255
-2.08549 -0.413373 4.46325 0 0 0 0 0 255
-2.04646 -0.400723 4.37205 0 0 0 0 0 255
-2.00743 -0.388072 4.28085 0 0 0 0 0 255
-1.96841 -0.375421 4.18965 0 0 0 0 0 255
-1.92938 -0.362771 4.09846 0 0 0 0 0 255
-1.89036 -0.35012 4.00726 0 0 0 0 0 255
-1.85133 -0.337469 3.91606 0 0 0 0 0 255
-1.81231 -0.324819 3.82486 0 0 0 0 0 255
-1.77328 -0.312168 3.73367 0 0 0 0 0 255
-1.73426 -0.299517 3.64247 0 0 0 0 0 255
-1.69523 -0.286867 3.55127 0 0 0 0 0 255
-1.6562 -0.274216 3.46008 0 0 0 0 0 255
-1.61718 -0.261565 3.36888 0 0 0 0 0 255
-1.57815 -0.248915 3.27768 0 0 0 0 0 255
-1.53913 -0.236264 3.18648 0 0 0 0 0 255
-1.5001 -0.223613 3.09529 0 0 0 0 0 255
-1.46108 -0.210963 3.00409 0 0 0 0 0 255
-1.42205 -0.198312 2.91289 0 0 0 0 0 255
-1.38303 -0.185661 2.82169 0 0 0 0 0 255
-1.344 -0.17301 2.7305 0 0 0 0 0 255
-1.30497 -0.16036 2.6393 0 0 0 0 0 255
-1.26595 -0.147709 2.5481 0 0 0 0 0 255
-1.22692 -0.135058 2.4569 0 0 0 0 0 255
-1.1879 -0.122408 2.36571 0 0 0 0 0 255
-1.14887 -0.109757 2.27451 0 0 0 0 0 255
-1.10985 -0.0971063 2.18331 0 0 0 0 0 255
-1.07082 -0.0844556 2.09211 0 0 0 0 0 255
-1.0318 -0.0718049 2.00092 0 0 0 0 0 255
-0.99277 -0.0591542 1.90972 0 0 0 0 0 255
-0.953745 -0.0465035 1.81852 0 0 0 0 0 255
-0.914719 -0.0338528 1.72732 0 0 0 0 0 255
-0.875694 -0.0212021 1.63613 0 0 0 0 0 255
-0.836668 -0.00855144 1.54493 0 0 0 0 0 255
-0.797643 0.00409925 1.45373 0 0 0 0 0 255
-0.758617 0.0167499 1.36254 0 0 0 0 0 255
-0.719591 0.0294006 1.27134 0 0 0 0 0 255
-0.680566 0.0420513 1.18014 0 0 0 0 0 255
-0.64154 0.054702 1.08894 0 0 0 0 0 255
-0.602515 0.0673527 0.997746 0 0 0 0 0 255
-0.563489 0.0800034 0.906548 0 0 0 0 0 255
-0.524464 0.0926541 0.815351 0 0 0 0 0 255
-0.485438 0.105305 0.724153 0 0 0 0 0 255
-0.446413 0.117955 0.632956 0 0 0 0 0 255
-0.407387 0.130606 0.541759 0 0 0 0 0 255
-0.368362 0.143257 0.450561 0 0 0 0 0 255
-0.329336 0.155908 0.359364 0 0 0 0 0 255
-0.29031 0.168558 0.268166 0 0 0 0 0 255
-0.251285 0.181209 0.176969 0 0 0 0 0 255
-0.212259 0.19386 0.0857716 0 0 0 0 0 255
-0.173234 0.20651 -0.00542584 0 0 0 0 0 255
-0.134208 0.219161 -0.0966233 0 0 0 0 0 255
-0.0951827 0.231812 -0.187821 0 0 0 0 0 255
-0.0561571 0.244462 -0.279018 0 0 0 0 0 255
-0.0171316 0.257113 -0.370216 0 0 0 0 0 255
0.021894 0.269764 -0.461413 0 0 0 0 0 255
0.0609195 0.282414 -0.55261 0 0 0 0 0 255
0.099945 0.295065 -0.643808 0 0 0 0 0 255
0.138971 0.307716 -0.735005 0 0 0 0 0 255
0.177996 0.320367 -0.826202 0 0 0 0 0 255
0.217022 0.333017 -0.9174 0 0 0 0 0 255
0.256047 0.345668 -1.0086 0 0 0 0 0 255
0.295073 0.358319 -1.09979 0 0 0 0 0 255
0.334098 0.370969 -1.19099 0 0 0 0 0 255
0.373124 0.38362 -1.28219 0 0 0 0 0 255
0.412149 0.396271 -1.37339 0 0 0 0 0 255
0.451175 0.408921 -1.46458 0 0 0 0 0 255
0.4902 0.421572 -1.55578 0 0 0 0 0 255
0.529226 0.434223 -1.64698 0 0 0 0 0 255
0.568251 0.446873 -1.73818 0 0 0 0 0 255
0.607277 0.459524 -1.82937 0 0 0 0 0 255
0.646302 0.472175 -1.92057 0 0 0 0 0 255
0.685328 0.484825 -2.01177 0 0 0 0 0 255
0.724353 0.497476 -2.10296 0 0 0 0 0 255
0.763379 0.510127 -2.19416 0 0 0 0 0 255
0.802404 0.522777 -2.28536 0 0 0 0 0 255
0.84143 0.535428 -2.37656 0 0 0 0 0 255
0.880455 0.548079 -2.46775 0 0 0 0 0 255
0.919481 0.560729 -2.55895 0 0 0 0 0 255
0.958506 0.57338 -2.65015 0 0 0 0 0 255
0.997532 0.586031 -2.74135 0 0 0 0 0 255
1.03656 0.598681 -2.83254 0 0 0 0 0 255
1.07558 0.611332 -2.92374 0 0 0 0 0 255
1.11461 0.623983 -3.01494 0 0 0 0 0 255
1.15363 0.636634 -3.10614 0 0 0 0 0 255
1.19266 0.649284 -3.19733 0 0 0 0 0 255
1.23168 0.661935 -3.28853 0 0 0 0 0 255
1.27071 0.674586 -3.37973 0 0 0 0 0 255
1.30974 0.687236 -3.47092 0 0 0 0 0 255
1.34876 0.699887 -3.56212 0 0 0 0 0 255
1.38779 0.712538 -3.65332 0 0 0 0 0 255
1.42681 0.725188 -3.74452 0 0 0 0 0 255
1.46584 0.737839 -3.83571 0 0 0 0 0 255
1.50486 0.75049 -3.92691 0 0 0 0 0 255
1.54389 0.76314 -4.01811 0 0 0 0 0 255
1.58291 0.775791 -4.10931 0 0 0 0 0 255
1.62194 0.788442 -4.2005 0 0 0 0 0 255
1.66097 0.801092 -4.2917 0 0 0 0 0 255
1.69999 0.813743 -4.3829 0 0 0 0 0 255
1.73902 0.826394 -4.4741 0 0 0 0 0 255
1.77804 0.839044 -4.56529 0 0 0 0 0 255
1.81707 0.851695 -4.65649 0 0 0 0 0 255
1.85609 0.864346 -4.74769 0 0 0 0 0 255
1.89512 0.876996 -4.83888 0 0 0 0 0 255
1.93414 0.889647 -4.93008 0 0 0 0 0 255
1.97317 0.902298 -5.02128 0 0 0 0 0 255
2.01219 0.914948 -5.11248 0 0 0 0 0 255
2.05122 0.927599 -5.20367 0 0 0 0 0 255
2.09025 0.94025 -5.29487 0 0 0 0 0 255
2.12927 0.9529 -5.38607 0 0 0 0 0 255
2.1683 0.965551 -5.47727 0 0 0 0 0 255
2.20732 0.978202 -5.56846 0 0 0 0 0 255
2.24635 0.990853 -5.65966 0 0 0 0 0 255
2.28537 1.0035 -5.75086 0 0 0 0 0 255
2.3244 1.01615 -5.84205 0 0 0 0 0 255
2.36342 1.0288 -5.93325 0 0 0 0 0 255
2.40245 1.04146 -6.02445 0 0 0 0 0 255
2.44148 1.05411 -6.11565 0 0 0 0 0 255
2.4805 1.06676 -6.20684 0 0 0 0 0 255
2.51953 1.07941 -6.29804 0 0 0 0 0 255
2.55855 1.09206 -6.38924 0 0 0 0 0 255
2.59758 1.10471 -6.48044 0 0 0 0 0 255
2.6366 1.11736 -6.57164 0 0 0 0 0 255
2.67563 1.13001 -6.66283 0 0 0 0 0 255
2.71466 1.14266 -6.75403 0 0 0 0 0 255
2.75368 1.15531 -6.84523 0 0 0 0 0 255
2.79271 1.16796 -6.93643 0 0 0 0 0 255
2.83173 1.18061 -7.02762 0 0 0 0 0 255
2.87076 1.19326 -7.11882 0 0 0 0 0 255
2.90978 1.20591 -7.21002 0 0 0 0 0 255
2.94881 1.21857 -7.30122 0 0 0 0 0 255
2.98784 1.23122 -7.39242 0 0 0 0 0 255
3.02686 1.24387 -7.48361 0 0 0 0 0 255
3.06589 1.25652 -7.57481 0 0 0 0 0 255
3.10491 1.26917 -7.66601 0 0 0 0 0 255
-0.339593 0.115469 0.281537 0 0 0 255 255 0
-4.30588 -0.369437 10.2362 0 0 0 255 255 255
-4.26425 -0.365464 10.1454 0 0 0 255 255 255
-4.22263 -0.361491 10.0545 0 0 0 255 255 255
-4.181 -0.357518 9.9637 0 0 0 255 255 255
-4.13937 -0.353545 9.87286 0 0 0 255 255 255
-4.09775 -0.349572 9.78202 0 0 0 255 255 255
-4.05612 -0.345599 9.69118 0 0 0 255 255 255
-4.01449 -0.341626 9.60035 0 0 0 255 255 255
-3.97287 -0.337653 9.50951 0 0 0 255 255 255
-3.93124 -0.33368 9.41867 0 0 0 255 255 255
-3.88961 -0.329707 9.32783 0 0 0 255 255 255
-3.84799 -0.325734 9.23699 0 0 0 255 255 255
-3.80636 -0.321761 9.14616 0 0 0 255 255 255
-3.76474 -0.317788 9.05532 0 0 0 255 255 255
-3.72311 -0.313815 8.96448 0 0 0 255 255 255
-3.68148 -0.309842 8.87364 0 0 0 255 255 255
-3.63986 -0.305869 8.7828 0 0 0 255 255 255
-3.59823 -0.301896 8.69197 0 0 0 255 255 255
-3.5566 -0.297923 8.60113 0 0 0 255 255 255
-3.51498 -0.293949 8.51029 0 0 0 255 255 255
-3.47335 -0.289976 8.41945 0 0 0 255 255 255
-3.43172 -0.286003 8.32862 0 0 0 255 255 255
-3.3901 -0.28203 8.23778 0 0 0 255 255 255
-3.34847 -0.278057 8.14694 0 0 0 255 255 255
-3.30685 -0.274084 8.0561 0 0 0 255 255 255
-3.26522 -0.270111 7.96527 0 0 0 255 255 255
-3.22359 -0.266138 7.87443 0 0 0 255 255 255
-3.18197 -0.262165 7.78359 0 0 0 255 255 255
-3.14034 -0.258192 7.69275 0 0 0 255 255 255
-3.09871 -0.254219 7.60192 0 0 0 255 255 255
-3.05709 -0.250246 7.51108 0 0 0 255 255 255
-3.01546 -0.246273 7.42024 0 0 0 255 255 255
-2.97384 -0.2423 7.3294 0 0 0 255 255 255
-2.93221 -0.238327 7.23857 0 0 0 255 255 255
-2.89058 -0.234354 7.14773 0 0 0 255 255 255
-2.84896 -0.230381 7.05689 0 0 0 255 255 255
-2.80733 -0.226408 6.96605 0 0 0 255 255 255
-2.7657 -0.222435 6.87522 0 0 0 255 255 255
-2.72408 -0.218462 6.78438 0 0 0 255 255 255
-2.68245 -0.214489 6.69354 0 0 0 255 255 255
-2.64083 -0.210516 6.6027 0 0 0 255 255 255
-2.5992 -0.206543 6.51187 0 0 0 255 255 255
-2.55757 -0.20257 6.42103 0 0 0 255 255 255
-2.51595 -0.198597 6.33019 0 0 0 255 255 255
-2.47432 -0.194624 6.23935 0 0 0 255 255 255
-2.4327 -0.190651 6.14852 0 0 0 255 255 255
-2.39107 -0.186678 6.05768 0 0 0 255 255 255
-2.34944 -0.182705 5.96684 0 0 0 255 255 255
-2.30782 -0.178732 5.876 0 0 0 255 255 255
-2.26619 -0.174759 5.78517 0 0 0 255 255 255
-2.22456 -0.170786 5.69433 0 0 0 255 255 255
-2.18294 -0.166813 5.60349 0 0 0 255 255 255
-2.14131 -0.16284 5.51265 0 0 0 255 255 255
-2.09969 -0.158867 5.42182 0 0 0 255 255 255
-2.05806 -0.154894 5.33098 0 0 0 255 255 255
-2.01643 -0.150921 5.24014 0 0 0 255 255 255
-1.97481 -0.146948 5.1493 0 0 0 255 255 255
-1.93318 -0.142975 5.05847 0 0 0 255 255 255
-1.89155 -0.139002 4.96763 0 0 0 255 255 255
-1.84993 -0.135028 4.87679 0 0 0 255 255 255
-1.8083 -0.131055 4.78595 0 0 0 255 255 255
-1.76668 -0.127082 4.69512 0 0 0 255 255 255
-1.72505 -0.123109 4.60428 0 0 0 255 255 255
-1.68342 -0.119136 4.51344 0 0 0 255 255 255
-1.6418 -0.115163 4.4226 0 0 0 255 255 255
-1.60017 -0.11119 4.33177 0 0 0 255 255 255
-1.55854 -0.107217 4.24093 0 0 0 255 255 255
-1.51692 -0.103244 4.15009 0 0 0 255 255 255
-1.47529 -0.0992713 4.05925 0 0 0 255 255 255
-1.43367 -0.0952982 3.96842 0 0 0 255 255 255
-1.39204 -0.0913252 3.87758 0 0 0 255 255 255
-1.35041 -0.0873522 3.78674 0 0 0 255 255 255
-1.30879 -0.0833792 3.6959 0 0 0 255 255 255
-1.26716 -0.0794061 3.60507 0 0 0 255 255 255
-1.22553 -0.0754331 3.51423 0 0 0 255 255 255
-1.18391 -0.0714601 3.42339 0 0 0 255 255 255
-1.14228 -0.0674871 3.33255 0 0 0 255 255 255
-1.10066 -0.063514 3.24172 0 0 0 255 255 255
-1.05903 -0.059541 3.15088 0 0 0 255 255 255
-1.0174 -0.055568 3.06004 0 0 0 255 255 255
-0.975777 -0.051595 2.9692 0 0 0 255 255 255
-0.934151 -0.0476219 2.87836 0 0 0 255 255 255
-0.892525 -0.0436489 2.78753 0 0 0 255 255 255
-0.850898 -0.0396759 2.69669 0 0 0 255 255 255
-0.809272 -0.0357029 2.60585 0 0 0 255 255 255
-0.767646 -0.0317298 2.51501 0 0 0 255 255 255
-0.72602 -0.0277568 2.42418 0 0 0 255 255 255
-0.684393 -0.0237838 2.33334 0 0 0 255 255 255
-0.642767 -0.0198107 2.2425 0 0 0 255 255 255
-0.601141 -0.0158377 2.15166 0 0 0 255 255 255
-0.559515 -0.0118647 2.06083 0 0 0 255 255 255
-0.517888 -0.00789165 1.96999 0 0 0 255 255 255
-0.476262 -0.00391862 1.87915 0 0 0 255 255 255
-0.434636 5.44132e-05 1.78831 0 0 0 255 255 255
-0.393009 0.00402744 1.69748 0 0 0 255 255 255
-0.351383 0.00800047 1.60664 0 0 0 255 255 255
-0.309757 0.0119735 1.5158 0 0 0 255 255 255
-0.268131 0.0159465 1.42496 0 0 0 255 255 255
-0.226504 0.0199196 1.33413 0 0 0 255 255 255
-0.184878 0.0238926 1.24329 0 0 0 255 255 255
-0.143252 0.0278656 1.15245 0 0 0 255 255 255
-0.101626 0.0318386 1.06161 0 0 0 255 255 255
-0.0599994 0.0358117 0.970775 0 0 0 255 255 255
-0.0183731 0.0397847 0.879938 0 0 0 255 255 255
0.0232532 0.0437577 0.7891 0 0 0 255 255 255
0.0648794 0.0477308 0.698262 0 0 0 255 255 255
0.106506 0.0517038 0.607425 0 0 0 255 255 255
0.148132 0.0556768 0.516587 0 0 0 255 255 255
0.189758 0.0596498 0.425749 0 0 0 255 255 255
0.231385 0.0636229 0.334912 0 0 0 255 255 255
0.273011 0.0675959 0.244074 0 0 0 255 255 255
0.314637 0.0715689 0.153237 0 0 0 255 255 255
0.356263 0.075542 0.062399 0 0 0 255 255 255
0.39789 0.079515 -0.0284386 0 0 0 255 255 255
0.439516 0.083488 -0.119276 0 0 0 255 255 255
0.481142 0.087461 -0.210114 0 0 0 255 255 255
0.522768 0.0914341 -0.300951 0 0 0 255 255 255
0.564395 0.0954071 -0.391789 0 0 0 255 255 255
0.606021 0.0993801 -0.482627 0 0 0 255 255 255
0.647647 0.103353 -0.573464 0 0 0 255 255 255
0.689273 0.107326 -0.664302 0 0 0 255 255 255
0.7309 0.111299 -0.755139 0 0 0 255 255 255
0.772526 0.115272 -0.845977 0 0 0 255 255 255
0.814152 0.119245 -0.936814 0 0 0 255 255 255
0.855778 0.123218 -1.02765 0 0 0 255 255 255
0.897405 0.127191 -1.11849 0 0 0 255 255 255
0.939031 0.131164 -1.20933 0 0 0 255 255 255
0.980657 0.135137 -1.30016 0 0 0 255 255 255
1.02228 0.13911 -1.391 0 0 0 255 255 255
1.06391 0.143083 -1.48184 0 0 0 255 255 255
1.10554 0.147056 -1.57268 0 0 0 255 255 255
1.14716 0.151029 -1.66351 0 0 0 255 255 255
1.18879 0.155002 -1.75435 0 0 0 255 255 255
1.23041 0.158976 -1.84519 0 0 0 255 255 255
1.27204 0.162949 -1.93603 0 0 0 255 255 255
1.31367 0.166922 -2.02686 0 0 0 255 255 255
1.35529 0.170895 -2.1177 0 0 0 255 255 255
1.39692 0.174868 -2.20854 0 0 0 255 255 255
1.43855 0.178841 -2.29938 0 0 0 255 255 255
1.48017 0.182814 -2.39021 0 0 0 255 255 255
1.5218 0.186787 -2.48105 0 0 0 255 255 255
1.56342 0.19076 -2.57189 0 0 0 255 255 255
1.60505 0.194733 -2.66273 0 0 0 255 255 255
1.64668 0.198706 -2.75356 0 0 0 255 255 255
1.6883 0.202679 -2.8444 0 0 0 255 255 255
1.72993 0.206652 -2.93524 0 0 0 255 255 255
1.77156 0.210625 -3.02608 0 0 0 255 255 255
1.81318 0.214598 -3.11691 0 0 0 255 255 255
1.85481 0.218571 -3.20775 0 0 0 255 255 255
1.89643 0.222544 -3.29859 0 0 0 255 255 255
1.93806 0.226517 -3.38943 0 0 0 255 255 255
1.97969 0.23049 -3.48026 0 0 0 255 255 255
2.02131 0.234463 -3.5711 0 0 0 255 255 255
2.06294 0.238436 -3.66194 0 0 0 255 255 255
2.10457 0.242409 -3.75278 0 0 0 255 255 255
2.14619 0.246382 -3.84362 0 0 0 255 255 255
2.18782 0.250355 -3.93445 0 0 0 255 255 255
2.22944 0.254328 -4.02529 0 0 0 255 255 255
2.27107 0.258301 -4.11613 0 0 0 255 255 255
2.3127 0.262274 -4.20697 0 0 0 255 255 255
2.35432 0.266247 -4.2978 0 0 0 255 255 255
2.39595 0.27022 -4.38864 0 0 0 255 255 255
2.43757 0.274193 -4.47948 0 0 0 255 255 255
2.4792 0.278166 -4.57032 0 0 0 255 255 255
2.52083 0.282139 -4.66115 0 0 0 255 255 255
2.56245 0.286112 -4.75199 0 0 0 255 255 255
2.60408 0.290085 -4.84283 0 0 0 255 255 255
2.64571 0.294058 -4.93367 0 0 0 255 255 255
2.68733 0.298031 -5.0245 0 0 0 255 255 255
2.72896 0.302004 -5.11534 0 0 0 255 255 255
2.77058 0.305977 -5.20618 0 0 0 255 255 255
2.81221 0.30995 -5.29702 0 0 0 255 255 255
2.85384 0.313923 -5.38785 0 0 0 255 255 255
2.89546 0.317897 -5.47869 0 0 0 255 255 255
2.93709 0.32187 -5.56953 0 0 0 255 255 255
2.97872 0.325843 -5.66037 0 0 0 255 255 255
3.02034 0.329816 -5.7512 0 0 0 255 255 255
3.06197 0.333789 -5.84204 0 0 0 255 255 255
3.10359 0.337762 -5.93288 0 0 0 255 255 255
3.14522 0.341735 -6.02372 0 0 0 255 255 255
3.18685 0.345708 -6.11455 0 0 0 255 255 255
3.22847 0.349681 -6.20539 0 0 0 255 255 255
3.2701 0.353654 -6.29623 0 0 0 255 255 255
3.31173 0.357627 -6.38707 0 0 0 255 255 255
3.35335 0.3616 -6.4779 0 0 0 255 255 255
3.39498 0.365573 -6.56874 0 0 0 255 255 255
3.43661 0.369546 -6.65958 0 0 0 255 255 255
3.47823 0.373519 -6.75042 0 0 0 255 255 255
3.51986 0.377492 -6.84126 0 0 0 255 255 255
3.56148 0.381465 -6.93209 0 0 0 255 255 255
3.60311 0.385438 -7.02293 0 0 0 255 255 255
3.64474 0.389411 -7.11377 0 0 0 255 255 255
3.68636 0.393384 -7.20461 0 0 0 255 255 255
3.72799 0.397357 -7.29545 0 0 0 255 255 255
3.76962 0.40133 -7.38628 0 0 0 255 255 255
3.81124 0.405303 -7.47712 0 0 0 255 255 255
3.85287 0.409276 -7.56796 0 0 0 255 255 255
3.8945 0.413249 -7.6588 0 0 0 255 255 255
3.93612 0.417222 -7.74964 0 0 0 255 255 255
3.97775 0.421195 -7.84047 0 0 0 255 255 255
1.38461 -0.0733709 10.8594 0 0 0 255 255 255
1.37421 -0.0722937 10.7599 0 0 0 255 255 255
1.36381 -0.0712164 10.6605 0 0 0 255 255 255
1.35341 -0.0701392 10.561 0 0 0 255 255 255
1.34301 -0.069062 10.4616 0 0 0 255 255 255
1.33261 -0.0679848 10.3621 0 0 0 255 255 255
1.32221 -0.0669076 10.2627 0 0 0 255 255 255
1.31181 -0.0658304 10.1632 0 0 0 255 255 255
1.30141 -0.0647531 10.0638 0 0 0 255 255 255
1.29101 -0.0636759 9.96433 0 0 0 255 255 255
1.2806 -0.0625987 9.86488 0 0 0 255 255 255
1.2702 -0.0615215 9.76543 0 0 0 255 255 255
1.2598 -0.0604443 9.66597 0 0 0 255 255 255
1.2494 -0.0593671 9.56652 0 0 0 255 255 255
1.239 -0.0582898 9.46707 0 0 0 255 255 255
1.2286 -0.0572126 9.36762 0 0 0 255 255 255
1.2182 -0.0561354 9.26816 0 0 0 255 255 255
1.2078 -0.0550582 9.16871 0 0 0 255 255 255
1.1974 -0.053981 9.06926 0 0 0 255 255 255
1.187 -0.0529038 8.96981 0 0 0 255 255 255
1.1766 -0.0518266 8.87036 0 0 0 255 255 255
1.1662 -0.0507493 8.7709 0 0 0 255 255 255
1.1558 -0.0496721 8.67145 0 0 0 255 255 255
1.1454 -0.0485949 8.572 0 0 0 255 255 255
1.135 -0.0475177 8.47255 0 0 0 255 255 255
1.1246 -0.0464405 8.3731 0 0 0 255 255 255
1.11419 -0.0453633 8.27365 0 0 0 255 255 255
1.10379 -0.0442861 8.17419 0 0 0 255 255 255
1.09339 -0.0432089 8.07474 0 0 0 255 255 255
1.08299 -0.0421317 7.97529 0 0 0 255 255 255
1.07259 -0.0410545 7.87584 0 0 0 255 255 255
1.06219 -0.0399772 7.77639 0 0 0 255 255 255
1.05179 -0.0389 7.67693 0 0 0 255 255 255
1.04139 -0.0378228 7.57748 0 0 0 255 255 255
1.03099 -0.0367456 7.47803 0 0 0 255 255 255
1.02059 -0.0356684 7.37858 0 0 0 255 255 255
1.01019 -0.0345912 7.27913 0 0 0 255 255 255
0.999788 -0.033514 7.17968 0 0 0 255 255 255
0.989387 -0.0324368 7.08022 0 0 0 255 255 255
0.978987 -0.0313596 6.98077 0 0 0 255 255 255
0.968586 -0.0302823 6.88132 0 0 0 255 255 255
0.958186 -0.0292051 6.78187 0 0 0 255 255 255
0.947785 -0.0281279 6.68242 0 0 0 255 255 255
0.937384 -0.0270507 6.58297 0 0 0 255 255 255
0.926984 -0.0259735 6.48351 0 0 0 255 255 255
0.916583 -0.0248963 6.38406 0 0 0 255 255 255
0.906183 -0.0238191 6.28461 0 0 0 255 255 255
0.895782 -0.0227419 6.18516 0 0 0 255 255 255
0.885381 -0.0216647 6.08571 0 0 0 255 255 255
0.874981 -0.0205874 5.98626 0 0 0 255 255 255
0.86458 -0.0195102 5.8868 0 0 0 255 255 255
0.85418 -0.018433 5.78735 0 0 0 255 255 255
0.843779 -0.0173558 5.6879 0 0 0 255 255 255
0.833378 -0.0162786 5.58845 0 0 0 255 255 255
0.822978 -0.0152014 5.489 0 0 0 255 255 255
0.812577 -0.0141242 5.38954 0 0 0 255 255 255
0.802176 -0.013047 5.29009 0 0 0 255 255 255
0.791776 -0.0119698 5.19064 0 0 0 255 255 255
0.781375 -0.0108926 5.09119 0 0 0 255 255 255
0.770975 -0.00981534 4.99174 0 0 0 255 255 255
0.760574 -0.00873813 4.89229 0 0 0 255 255 255
0.750173 -0.00766092 4.79283 0 0 0 255 255 255
0.739773 -0.00658371 4.69338 0 0 0 255 255 255
0.729372 -0.0055065 4.59393 0 0 0 255 255 255
0.718972 -0.00442929 4.49448 0 0 0 255 255 255
0.708571 -0.00335208 4.39503 0 0 0 255 255 255
0.69817 -0.00227487 4.29558 0 0 0 255 255 255
0.68777 -0.00119766 4.19612 0 0 0 255 255 255
0.677369 -0.000120447 4.09667 0 0 0 255 255 255
0.666969 0.000956764 3.99722 0 0 0 255 255 255
0.656568 0.00203397 3.89777 0 0 0 255 255 255
0.646167 0.00311119 3.79832 0 0 0 255 255 255
0.635767 0.0041884 3.69887 0 0 0 255 255 255
0.625366 0.00526561 3.59941 0 0 0 255 255 255
0.614965 0.00634282 3.49996 0 0 0 255 255 255
0.604565 0.00742003 3.40051 0 0 0 255 255 255
0.594164 0.00849724 3.30106 0 0 0 255 255 255
0.583764 0.00957445 3.20161 0 0 0 255 255 255
0.573363 0.0106517 3.10215 0 0 0 255 255 255
0.562962 0.0117289 3.0027 0 0 0 255 255 255
0.552562 0.0128061 2.90325 0 0 0 255 255 255
0.542161 0.0138833 2.8038 0 0 0 255 255 255
0.531761 0.0149605 2.70435 0 0 0 255 255 255
0.52136 0.0160377 2.6049 0 0 0 255 255 255
0.510959 0.0171149 2.50544 0 0 0 255 255 255
0.500559 0.0181921 2.40599 0 0 0 255 255 255
0.490158 0.0192694 2.30654 0 0 0 255 255 255
0.479757 0.0203466 2.20709 0 0 0 255 255 255
0.469357 0.0214238 2.10764 0 0 0 255 255 255
0.458956 0.022501 2.00818 0 0 0 255 255 255
0.448556 0.0235782 1.90873 0 0 0 255 255 255
0.438155 0.0246554 1.80928 0 0 0 255 255 255
0.427754 0.0257326 1.70983 0 0 0 255 255 255
0.417354 0.0268098 1.61038 0 0 0 255 255 255
0.406953 0.027887 1.51093 0 0 0 255 255 255
0.396552 0.0289643 1.41147 0 0 0 255 255 255
0.386152 0.0300415 1.31202 0 0 0 255 255 255
0.375751 0.0311187 1.21257 0 0 0 255 255 255
0.365351 0.0321959 1.11312 0 0 0 255 255 255
0.35495 0.0332731 1.01367 0 0 0 255 255 255
0.344549 0.0343503 0.914214 0 0 0 255 255 255
0.334149 0.0354275 0.814762 0 0 0 255 255 255
0.323748 0.0365047 0.715311 0 0 0 255 255 255
0.313348 0.037582 0.615859 0 0 0 255 255 255
0.302947 0.0386592 0.516407 0 0 0 255 255 255
0.292546 0.0397364 0.416955 0 0 0 255 255 255
0.282146 0.0408136 0.317503 0 0 0 255 255 255
0.271745 0.0418908 0.218051 0 0 0 255 255 255
0.261344 0.042968 0.118599 0 0 0 255 255 255
0.250944 0.0440452 0.0191476 0 0 0 255 255 255
0.240543 0.0451224 -0.0803042 0 0 0 255 255 255
0.230143 0.0461996 -0.179756 0 0 0 255 255 255
0.219742 0.0472769 -0.279208 0 0 0 255 255 255
0.209341 0.0483541 -0.37866 0 0 0 255 255 255
0.198941 0.0494313 -0.478112 0 0 0 255 255 255
0.18854 0.0505085 -0.577563 0 0 0 255 255 255
0.178139 0.0515857 -0.677015 0 0 0 255 255 255
0.167739 0.0526629 -0.776467 0 0 0 255 255 255
0.157338 0.0537401 -0.875919 0 0 0 255 255 255
0.146938 0.0548173 -0.975371 0 0 0 255 255 255
0.136537 0.0558946 -1.07482 0 0 0 255 255 255
0.126136 0.0569718 -1.17427 0 0 0 255 255 255
0.115736 0.058049 -1.27373 0 0 0 255 255 255
0.105335 0.0591262 -1.37318 0 0 0 255 255 255
0.0949345 0.0602034 -1.47263 0 0 0 255 255 255
0.0845339 0.0612806 -1.57208 0 0 0 255 255 255
0.0741333 0.0623578 -1.67153 0 0 0 255 255 255
0.0637327 0.063435 -1.77098 0 0 0 255 255 255
0.0533321 0.0645122 -1.87044 0 0 0 255 255 255
0.0429314 0.0655895 -1.96989 0 0 0 255 255 255
0.0325308 0.0666667 -2.06934 0 0 0 255 255 255
0.0221302 0.0677439 -2.16879 0 0 0 255 255 255
0.0117296 0.0688211 -2.26824 0 0 0 255 255 255
0.00132901 0.0698983 -2.3677 0 0 0 255 255 255
-0.0090716 0.0709755 -2.46715 0 0 0 255 255 255
-0.0194722 0.0720527 -2.5666 0 0 0 255 255 255
-0.0298728 0.0731299 -2.66605 0 0 0 255 255 255
-0.0402734 0.0742071 -2.7655 0 0 0 255 255 255
-0.050674 0.0752843 -2.86495 0 0 0 255 255 255
-0.0610747 0.0763616 -2.96441 0 0 0 255 255 255
-0.0714753 0.0774388 -3.06386 0 0 0 255 255 255
-0.0818759 0.078516 -3.16331 0 0 0 255 255 255
-0.0922765 0.0795932 -3.26276 0 0 0 255 255 255
-0.102677 0.0806704 -3.36221 0 0 0 255 255 255
-0.113078 0.0817476 -3.46166 0 0 0 255 255 255
-0.123478 0.0828248 -3.56112 0 0 0 255 255 255
-0.133879 0.083902 -3.66057 0 0 0 255 255 255
-0.14428 0.0849792 -3.76002 0 0 0 255 255 255
-0.15468 0.0860565 -3.85947 0 0 0 255 255 255
-0.165081 0.0871337 -3.95892 0 0 0 255 255 255
-0.175481 0.0882109 -4.05838 0 0 0 255 255 255
-0.185882 0.0892881 -4.15783 0 0 0 255 255 255
-0.196283 0.0903653 -4.25728 0 0 0 255 255 255
-0.206683 0.0914425 -4.35673 0 0 0 255 255 255
-0.217084 0.0925197 -4.45618 0 0 0 255 255 255
-0.227484 0.0935969 -4.55563 0 0 0 255 255 255
-0.237885 0.0946741 -4.65509 0 0 0 255 255 255
-0.248286 0.0957513 -4.75454 0 0 0 255 255 255
-0.258686 0.0968286 -4.85399 0 0 0 255 255 255
-0.269087 0.0979058 -4.95344 0 0 0 255 255 255
-0.279487 0.098983 -5.05289 0 0 0 255 255 255
-0.289888 0.10006 -5.15234 0 0 0 255 255 255
-0.300289 0.101137 -5.2518 0 0 0 255 255 255
-0.310689 0.102215 -5.35125 0 0 0 255 255 255
-0.32109 0.103292 -5.4507 0 0 0 255 255 255
-0.331491 0.104369 -5.55015 0 0 0 255 255 255
-0.341891 0.105446 -5.6496 0 0 0 255 255 255
-0.352292 0.106523 -5.74905 0 0 0 255 255 255
-0.362692 0.107601 -5.84851 0 0 0 255 255 255
-0.373093 0.108678 -5.94796 0 0 0 255 255 255
-0.383494 0.109755 -6.04741 0 0 0 255 255 255
-0.393894 0.110832 -6.14686 0 0 0 255 255 255
-0.404295 0.11191 -6.24631 0 0 0 255 255 255
-0.414695 0.112987 -6.34577 0 0 0 255 255 255
-0.425096 0.114064 -6.44522 0 0 0 255 255 255
-0.435497 0.115141 -6.54467 0 0 0 255 255 255
-0.445897 0.116218 -6.64412 0 0 0 255 255 255
-0.456298 0.117296 -6.74357 0 0 0 255 255 255
-0.466698 0.118373 -6.84302 0 0 0 255 255 255
-0.477099 0.11945 -6.94248 0 0 0 255 255 255
-0.4875 0.120527 -7.04193 0 0 0 255 255 255
-0.4979 0.121604 -7.14138 0 0 0 255 255 255
-0.508301 0.122682 -7.24083 0 0 0 255 255 255
-0.518702 0.123759 -7.34028 0 0 0 255 255 255
-0.529102 0.124836 -7.43974 0 0 0 255 255 255
-0.539503 0.125913 -7.53919 0 0 0 255 255 255
-0.549904 0.12699 -7.63864 0 0 0 255 255 255
-0.560304 0.128068 -7.73809 0 0 0 255 255 255
-0.570705 0.129145 -7.83754 0 0 0 255 255 255
-0.581106 0.130222 -7.937 0 0 0 255 255 255
-0.591506 0.131299 -8.03645 0 0 0 255 255 255
-0.601907 0.132377 -8.1359 0 0 0 255 255 255
-0.612308 0.133454 -8.23535 0 0 0 255 255 255
-0.622708 0.134531 -8.33481 0 0 0 255 255 255
-0.633109 0.135608 -8.43426 0 0 0 255 255 255
-0.64351 0.136685 -8.53371 0 0 0 255 255 255
-0.65391 0.137763 -8.63316 0 0 0 255 255 255
-0.664311 0.13884 -8.73261 0 0 0 255 255 255
-0.674712 0.139917 -8.83207 0 0 0 255 255 255
-0.685112 0.140994 -8.93152 0 0 0 255 255 255
-7.9096 -0.855756 8.27005 0 0 0 255 255 255
-7.83684 -0.846848 8.20203 0 0 0 255 255 255
-7.76408 -0.837941 8.13401 0 0 0 255 255 255
-7.69132 -0.829034 8.06599 0 0 0 255 255 255
-7.61856 -0.820126 7.99797 0 0 0 255 255 255
-7.5458 -0.811219 7.92995 0 0 0 255 255 255
-7.47304 -0.802311 7.86193 0 0 0 255 255 255
-7.40028 -0.793404 7.79391 0 0 0 255 255 255
-7.32752 -0.784496 7.72589 0 0 0 255 255 255
-7.25476 -0.775589 7.65787 0 0 0 255 255 255
-7.182 -0.766682 7.58985 0 0 0 255 255 255
-7.10924 -0.757774 7.52183 0 0 0 255 255 255
-7.03648 -0.748867 7.45381 0 0 0 255 255 255
-6.96372 -0.739959 7.38579 0 0 0 255 255 255
-6.89096 -0.731052 7.31777 0 0 0 255 255 255
-6.8182 -0.722144 7.24975 0 0 0 255 255 255
-6.74544 -0.713237 7.18173 0 0 0 255 255 255
-6.67268 -0.704329 7.11371 0 0 0 255 255 255
-6.59992 -0.695422 7.04569 0 0 0 255 255 255
-6.52716 -0.686515 6.97767 0 0 0 255 255 255
-6.4544 -0.677607 6.90965 0 0 0 255 255 255
-6.38164 -0.6687 6.84163 0 0 0 255 255 255
-6.30888 -0.659792 6.77361 0 0 0 255 255 255
-6.23612 -0.650885 6.70559 0 0 0 255 255 255
-6.16336 -0.641978 6.63758 0 0 0 255 255 255
-6.0906 -0.63307 6.56956 0 0 0 255 255 255
-6.01784 -0.624163 6.50154 0 0 0 255 255 255
-5.94508 -0.615255 6.43352 0 0 0 255 255 255
-5.87232 -0.606348 6.3655 0 0 0 255 255 255
-5.79956 -0.597441 6.29748 0 0 0 255 255 255
-5.7268 -0.588533 6.22946 0 0 0 255 255 255
-5.65404 -0.579626 6.16144 0 0 0 255 255 255
-5.58128 -0.570718 6.09342 0 0 0 255 255 255
-5.50852 -0.561811 6.0254 0 0 0 255 255 255
-5.43576 -0.552904 5.95738 0 0 0 255 255 255
-5.363 -0.543996 5.88936 0 0 0 255 255 255
-5.29024 -0.535089 5.82134 0 0 0 255 255 255
-5.21748 -0.526182 5.75332 0 0 0 255 255 255
-5.14472 -0.517274 5.6853 0 0 0 255 255 255
-5.07196 -0.508367 5.61728 0 0 0 255 255 255
-4.9992 -0.499459 5.54926 0 0 0 255 255 255
-4.92644 -0.490552 5.48124 0 0 0 255 255 255
-4.85368 -0.481645 5.41322 0 0 0 255 255 255
-4.78092 -0.472737 5.3452 0 0 0 255 255 255
-4.70816 -0.46383 5.27718 0 0 0 255 255 255
-4.6354 -0.454922 5.20917 0 0 0 255 255 255
-4.56264 -0.446015 5.14115 0 0 0 255 255 255
-4.48988 -0.437108 5.07313 0 0 0 255 255 255
-4.41712 -0.4282 5.00511 0 0 0 255 255 255
-4.34436 -0.419293 4.93709 0 0 0 255 255 255
-4.2716 -0.410385 4.86907 0 0 0 255 255 255
-4.19884 -0.401478 4.80105 0 0 0 255 255 255
-4.12609 -0.392571 4.73303 0 0 0 255 255 255
-4.05333 -0.383663 4.66501 0 0 0 255 255 255
-3.98057 -0.374756 4.59699 0 0 0 255 255 255
-3.90781 -0.365848 4.52897 0 0 0 255 255 255
-3.83505 -0.356941 4.46095 0 0 0 255 255 255
-3.76229 -0.348034 4.39293 0 0 0 255 255 255
-3.68953 -0.339126 4.32491 0 0 0 255 255 255
-3.61677 -0.330219 4.25689 0 0 0 255 255 255
-3.54401 -0.321312 4.18887 0 0 0 255 255 255
-3.47125 -0.312404 4.12085 0 0 0 255 255 255
