ply
format ascii 1.0
element vertex 1095
property float x
property float y
property float z
property float nx
property float ny
property float nz
property uchar red
property uchar green
property uchar blue
end_header
0.267953 0.973391 -0.00871796 0 0 0 0 255 0
0.277976 0.984068 -0.0297355 0 0 0 0 255 0
0.287998 0.994745 -0.0507529 0 0 0 0 255 0
0.298021 1.00542 -0.0717704 0 0 0 0 255 0
0.308043 1.0161 -0.0927879 0 0 0 0 255 0
0.318066 1.02678 -0.113806 0 0 0 0 255 0
0.328088 1.03745 -0.134823 0 0 0 0 255 0
0.338111 1.04813 -0.155841 0 0 0 0 255 0
0.348134 1.05881 -0.176858 0 0 0 0 255 0
0.358156 1.06948 -0.197876 0 0 0 0 255 0
0.368179 1.08016 -0.218894 0 0 0 0 255 0
0.378201 1.09084 -0.239911 0 0 0 0 255 0
0.388224 1.10152 -0.260929 0 0 0 0 255 0
0.398247 1.11219 -0.281946 0 0 0 0 255 0
0.408269 1.12287 -0.302964 0 0 0 0 255 0
0.418292 1.13355 -0.323981 0 0 0 0 255 0
0.428314 1.14422 -0.344999 0 0 0 0 255 0
0.438337 1.1549 -0.366017 0 0 0 0 255 0
0.448359 1.16558 -0.387034 0 0 0 0 255 0
0.458382 1.17626 -0.408052 0 0 0 0 255 0
0.468405 1.18693 -0.429069 0 0 0 0 255 0
0.478427 1.19761 -0.450087 0 0 0 0 255 0
0.48845 1.20829 -0.471105 0 0 0 0 255 0
0.342769 -0.302009 3.10595 0 0 0 0 0 255
0.336233 -0.298799 3.08433 0 0 0 0 0 255
0.329697 -0.295589 3.06272 0 0 0 0 0 255
0.323161 -0.292378 3.04111 0 0 0 0 0 255
0.316625 -0.289168 3.01949 0 0 0 0 0 255
0.310089 -0.285958 2.99788 0 0 0 0 0 255
0.303553 -0.282748 2.97626 0 0 0 0 0 255
0.297017 -0.279538 2.95465 0 0 0 0 0 255
0.290481 -0.276328 2.93304 0 0 0 0 0 255
0.283945 -0.273117 2.91142 0 0 0 0 0 255
0.277409 -0.269907 2.88981 0 0 0 0 0 255
0.270873 -0.266697 2.8682 0 0 0 0 0 255
0.264337 -0.263487 2.84658 0 0 0 0 0 255
0.257801 -0.260277 2.82497 0 0 0 0 0 255
0.251265 -0.257066 2.80336 0 0 0 0 0 255
0.244729 -0.253856 2.78174 0 0 0 0 0 255
0.238193 -0.250646 2.76013 0 0 0 0 0 255
0.231657 -0.247436 2.73852 0 0 0 0 0 255
0.225121 -0.244226 2.7169 0 0 0 0 0 255
0.218585 -0.241015 2.69529 0 0 0 0 0 255
0.212049 -0.237805 2.67367 0 0 0 0 0 255
0.205513 -0.234595 2.65206 0 0 0 0 0 255
0.198977 -0.231385 2.63045 0 0 0 0 0 255
0.192441 -0.228175 2.60883 0 0 0 0 0 255
0.185905 -0.224965 2.58722 0 0 0 0 0 255
0.179369 -0.221754 2.56561 0 0 0 0 0 255
0.172833 -0.218544 2.54399 0 0 0 0 0 255
0.166297 -0.215334 2.52238 0 0 0 0 0 255
0.159761 -0.212124 2.50077 0 0 0 0 0 255
0.153225 -0.208914 2.47915 0 0 0 0 0 255
0.146689 -0.205704 2.45754 0 0 0 0 0 255
0.140153 -0.202493 2.43593 0 0 0 0 0 255
0.133617 -0.199283 2.41431 0 0 0 0 0 255
0.127081 -0.196073 2.3927 0 0 0 0 0 255
0.120545 -0.192863 2.37109 0 0 0 0 0 255
0.114009 -0.189653 2.34947 0 0 0 0 0 255
0.107473 -0.186442 2.32786 0 0 0 0 0 255
0.100937 -0.183232 2.30625 0 0 0 0 0 255
0.0944011 -0.180022 2.28463 0 0 0 0 0 255
0.0878652 -0.176812 2.26302 0 0 0 0 0 255
0.0813292 -0.173602 2.24141 0 0 0 0 0 255
0.0747932 -0.170392 2.21979 0 0 0 0 0 255
0.0682572 -0.167181 2.19818 0 0 0 0 0 255
0.0617213 -0.163971 2.17656 0 0 0 0 0 255
0.0551853 -0.160761 2.15495 0 0 0 0 0 255
0.0486493 -0.157551 2.13334 0 0 0 0 0 255
0.0421133 -0.154341 2.11172 0 0 0 0 0 255
0.0355774 -0.151131 2.09011 0 0 0 0 0 255
0.0290414 -0.14792 2.0685 0 0 0 0 0 255
0.0225054 -0.14471 2.04688 0 0 0 0 0 255
0.0159694 -0.1415 2.02527 0 0 0 0 0 255
0.00943345 -0.13829 2.00366 0 0 0 0 0 255
0.00289748 -0.13508 1.98204 0 0 0 0 0 255
-0.0036385 -0.131869 1.96043 0 0 0 0 0 255
-0.0101745 -0.128659 1.93882 0 0 0 0 0 255
-0.0167104 -0.125449 1.9172 0 0 0 0 0 255
-0.0232464 -0.122239 1.89559 0 0 0 0 0 255
-0.0297824 -0.119029 1.87398 0 0 0 0 0 255
-0.0363184 -0.115819 1.85236 0 0 0 0 0 255
-0.0428544 -0.112608 1.83075 0 0 0 0 0 255
-0.0493903 -0.109398 1.80914 0 0 0 0 0 255
-0.0559263 -0.106188 1.78752 0 0 0 0 0 255
-0.0624623 -0.102978 1.76591 0 0 0 0 0 255
-0.0689983 -0.0997677 1.7443 0 0 0 0 0 255
-0.0755342 -0.0965576 1.72268 0 0 0 0 0 255
-0.0820702 -0.0933474 1.70107 0 0 0 0 0 255
-0.0886062 -0.0901372 1.67945 0 0 0 0 0 255
-0.0951422 -0.086927 1.65784 0 0 0 0 0 255
-0.101678 -0.0837169 1.63623 0 0 0 0 0 255
-0.108214 -0.0805067 1.61461 0 0 0 0 0 255
-0.11475 -0.0772965 1.593 0 0 0 0 0 255
-0.121286 -0.0740863 1.57139 0 0 0 0 0 255
-0.127822 -0.0708762 1.54977 0 0 0 0 0 255
-0.134358 -0.067666 1.52816 0 0 0 0 0 255
-0.140894 -0.0644558 1.50655 0 0 0 0 0 255
-0.14743 -0.0612456 1.48493 0 0 0 0 0 255
-0.153966 -0.0580355 1.46332 0 0 0 0 0 255
-0.160502 -0.0548253 1.44171 0 0 0 0 0 255
-0.167038 -0.0516151 1.42009 0 0 0 0 0 255
-0.173574 -0.0484049 1.39848 0 0 0 0 0 255
-0.18011 -0.0451948 1.37687 0 0 0 0 0 255
-0.186646 -0.0419846 1.35525 0 0 0 0 0 255
-0.193182 -0.0387744 1.33364 0 0 0 0 0 255
-0.199718 -0.0355642 1.31203 0 0 0 0 0 255
-0.206254 -0.032354 1.29041 0 0 0 0 0 255
-0.21279 -0.0291439 1.2688 0 0 0 0 0 255
-0.219326 -0.0259337 1.24718 0 0 0 0 0 255
-0.225862 -0.0227235 1.22557 0 0 0 0 0 255
-0.232398 -0.0195133 1.20396 0 0 0 0 0 255
-0.238934 -0.0163031 1.18234 0 0 0 0 0 255
-0.24547 -0.013093 1.16073 0 0 0 0 0 255
-0.252006 -0.00988279 1.13912 0 0 0 0 0 255
-0.258542 -0.00667261 1.1175 0 0 0 0 0 255
-0.265078 -0.00346243 1.09589 0 0 0 0 0 255
-0.271614 -0.000252256 1.07428 0 0 0 0 0 255
-0.27815 0.00295792 1.05266 0 0 0 0 0 255
-0.284686 0.0061681 1.03105 0 0 0 0 0 255
-0.291222 0.00937828 1.00944 0 0 0 0 0 255
-0.297758 0.0125885 0.987823 0 0 0 0 0 255
-0.304294 0.0157986 0.966209 0 0 0 0 0 255
-0.310829 0.0190088 0.944596 0 0 0 0 0 255
-0.317365 0.022219 0.922982 0 0 0 0 0 255
-0.323901 0.0254292 0.901369 0 0 0 0 0 255
-0.330437 0.0286393 0.879755 0 0 0 0 0 255
-0.336973 0.0318495 0.858142 0 0 0 0 0 255
-0.343509 0.0350597 0.836528 0 0 0 0 0 255
-0.350045 0.0382699 0.814915 0 0 0 0 0 255
-0.356581 0.0414801 0.793301 0 0 0 0 0 255
-0.363117 0.0446902 0.771688 0 0 0 0 0 255
-0.369653 0.0479004 0.750074 0 0 0 0 0 255
-0.376189 0.0511106 0.728461 0 0 0 0 0 255
-0.382725 0.0543208 0.706847 0 0 0 0 0 255
-0.389261 0.057531 0.685234 0 0 0 0 0 255
-0.395797 0.0607411 0.66362 0 0 0 0 0 255
-0.402333 0.0639513 0.642007 0 0 0 0 0 255
-0.408869 0.0671615 0.620393 0 0 0 0 0 255
-0.415405 0.0703717 0.59878 0 0 0 0 0 255
-0.421941 0.0735818 0.577166 0 0 0 0 0 255
-0.428477 0.076792 0.555553 0 0 0 0 0 255
-0.435013 0.0800022 0.533939 0 0 0 0 0 255
-0.441549 0.0832124 0.512326 0 0 0 0 0 255
-0.448085 0.0864226 0.490712 0 0 0 0 0 255
-0.454621 0.0896327 0.469099 0 0 0 0 0 255
-0.461157 0.0928429 0.447486 0 0 0 0 0 255
-0.467693 0.0960531 0.425872 0 0 0 0 0 255
-0.474229 0.0992633 0.404259 0 0 0 0 0 255
-0.480765 0.102473 0.382645 0 0 0 0 0 255
-0.487301 0.105684 0.361032 0 0 0 0 0 255
-0.493837 0.108894 0.339418 0 0 0 0 0 255
-0.500373 0.112104 0.317805 0 0 0 0 0 255
-0.506909 0.115314 0.296191 0 0 0 0 0 255
-0.513445 0.118524 0.274578 0 0 0 0 0 255
-0.519981 0.121734 0.252964 0 0 0 0 0 255
-0.526517 0.124945 0.231351 0 0 0 0 0 255
-0.533053 0.128155 0.209737 0 0 0 0 0 255
-0.539589 0.131365 0.188124 0 0 0 0 0 255
-0.546125 0.134575 0.16651 0 0 0 0 0 255
-0.552661 0.137785 0.144897 0 0 0 0 0 255
-0.559197 0.140996 0.123283 0 0 0 0 0 255
-0.565733 0.144206 0.10167 0 0 0 0 0 255
-0.572269 0.147416 0.0800564 0 0 0 0 0 255
-0.578805 0.150626 0.0584429 0 0 0 0 0 255
-0.585341 0.153836 0.0368294 0 0 0 0 0 255
-0.591877 0.157046 0.015216 0 0 0 0 0 255
-0.598413 0.160257 -0.00639752 0 0 0 0 0 255
-0.604949 0.163467 -0.028011 0 0 0 0 0 255
-0.611485 0.166677 -0.0496245 0 0 0 0 0 255
-0.61802 0.169887 -0.0712379 0 0 0 0 0 255
-0.624556 0.173097 -0.0928514 0 0 0 0 0 255
-0.631092 0.176307 -0.114465 0 0 0 0 0 255
-0.637628 0.179518 -0.136078 0 0 0 0 0 255
-0.644164 0.182728 -0.157692 0 0 0 0 0 255
-0.6507 0.185938 -0.179305 0 0 0 0 0 255
-0.657236 0.189148 -0.200919 0 0 0 0 0 255
-0.663772 0.192358 -0.222532 0 0 0 0 0 255
-0.670308 0.195569 -0.244146 0 0 0 0 0 255
-0.676844 0.198779 -0.265759 0 0 0 0 0 255
-0.68338 0.201989 -0.287373 0 0 0 0 0 255
-0.689916 0.205199 -0.308986 0 0 0 0 0 255
-0.696452 0.208409 -0.3306 0 0 0 0 0 255
-0.702988 0.211619 -0.352213 0 0 0 0 0 255
-0.709524 0.21483 -0.373827 0 0 0 0 0 255
-0.71606 0.21804 -0.39544 0 0 0 0 0 255
-0.722596 0.22125 -0.417054 0 0 0 0 0 255
-0.729132 0.22446 -0.438667 0 0 0 0 0 255
-0.735668 0.22767 -0.460281 0 0 0 0 0 255
-0.742204 0.23088 -0.481894 0 0 0 0 0 255
-0.74874 0.234091 -0.503507 0 0 0 0 0 255
-0.755276 0.237301 -0.525121 0 0 0 0 0 255
-0.761812 0.240511 -0.546734 0 0 0 0 0 255
-0.768348 0.243721 -0.568348 0 0 0 0 0 255
-0.774884 0.246931 -0.589961 0 0 0 0 0 255
-0.78142 0.250141 -0.611575 0 0 0 0 0 255
-0.787956 0.253352 -0.633188 0 0 0 0 0 255
-0.794492 0.256562 -0.654802 0 0 0 0 0 255
-0.801028 0.259772 -0.676415 0 0 0 0 0 255
-0.807564 0.262982 -0.698029 0 0 0 0 0 255
-0.8141 0.266192 -0.719642 0 0 0 0 0 255
-0.820636 0.269403 -0.741256 0 0 0 0 0 255
-0.827172 0.272613 -0.762869 0 0 0 0 0 255
-0.833708 0.275823 -0.784483 0 0 0 0 0 255
-0.840244 0.279033 -0.806096 0 0 0 0 0 255
-0.84678 0.282243 -0.82771 0 0 0 0 0 255
-0.853316 0.285453 -0.849323 0 0 0 0 0 255
-0.859852 0.288664 -0.870937 0 0 0 0 0 255
-0.866388 0.291874 -0.89255 0 0 0 0 0 255
-0.872924 0.295084 -0.914164 0 0 0 0 0 255
-0.87946 0.298294 -0.935778 0 0 0 0 0 255
-0.885996 0.301504 -0.957391 0 0 0 0 0 255
-0.892532 0.304715 -0.979005 0 0 0 0 0 255
-0.899068 0.307925 -1.00062 0 0 0 0 0 255
-0.905604 0.311135 -1.02223 0 0 0 0 0 255
-0.91214 0.314345 -1.04385 0 0 0 0 0 255
-0.918676 0.317555 -1.06546 0 0 0 0 0 255
-0.925212 0.320766 -1.08707 0 0 0 0 0 255
-0.931748 0.323976 -1.10869 0 0 0 0 0 255
-0.938284 0.327186 -1.1303 0 0 0 0 0 255
-0.94482 0.330396 -1.15191 0 0 0 0 0 255
-0.951356 0.333606 -1.17353 0 0 0 0 0 255
-0.957892 0.336816 -1.19514 0 0 0 0 0 255
1.66985 -0.28594 2.87632 0 0 0 0 0 255
1.65606 -0.282131 2.8583 0 0 0 0 0 255
1.64228 -0.278323 2.84027 0 0 0 0 0 255
1.62849 -0.274514 2.82225 0 0 0 0 0 255
1.61471 -0.270705 2.80422 0 0 0 0 0 255
1.60092 -0.266897 2.7862 0 0 0 0 0 255
1.58714 -0.263088 2.76817 0 0 0 0 0 255
1.57335 -0.25928 2.75015 0 0 0 0 0 255
1.55957 -0.255471 2.73212 0 0 0 0 0 255
1.54578 -0.251662 2.71409 0 0 0 0 0 255
1.532 -0.247854 2.69607 0 0 0 0 0 255
1.51822 -0.244045 2.67804 0 0 0 0 0 255
1.50443 -0.240236 2.66002 0 0 0 0 0 255
1.49065 -0.236428 2.64199 0 0 0 0 0 255
1.47686 -0.232619 2.62397 0 0 0 0 0 255
1.46308 -0.22881 2.60594 0 0 0 0 0 255
1.44929 -0.225002 2.58792 0 0 0 0 0 255
1.43551 -0.221193 2.56989 0 0 0 0 0 255
1.42172 -0.217384 2.55187 0 0 0 0 0 255
1.40794 -0.213576 2.53384 0 0 0 0 0 255
1.39415 -0.209767 2.51582 0 0 0 0 0 255
1.38037 -0.205959 2.49779 0 0 0 0 0 255
1.36658 -0.20215 2.47977 0 0 0 0 0 255
1.3528 -0.198341 2.46174 0 0 0 0 0 255
1.33901 -0.194533 2.44372 0 0 0 0 0 255
1.32523 -0.190724 2.42569 0 0 0 0 0 255
1.31144 -0.186915 2.40767 0 0 0 0 0 255
1.29766 -0.183107 2.38964 0 0 0 0 0 255
1.28387 -0.179298 2.37162 0 0 0 0 0 255
1.27009 -0.17549 2.35359 0 0 0 0 0 255
1.25631 -0.171681 2.33556 0 0 0 0 0 255
1.24252 -0.167872 2.31754 0 0 0 0 0 255
1.22874 -0.164064 2.29951 0 0 0 0 0 255
1.21495 -0.160255 2.28149 0 0 0 0 0 255
1.20117 -0.156446 2.26346 0 0 0 0 0 255
1.18738 -0.152638 2.24544 0 0 0 0 0 255
1.1736 -0.148829 2.22741 0 0 0 0 0 255
1.15981 -0.145021 2.20939 0 0 0 0 0 255
1.14603 -0.141212 2.19136 0 0 0 0 0 255
1.13224 -0.137403 2.17334 0 0 0 0 0 255
1.11846 -0.133595 2.15531 0 0 0 0 0 255
1.10467 -0.129786 2.13729 0 0 0 0 0 255
1.09089 -0.125977 2.11926 0 0 0 0 0 255
1.0771 -0.122169 2.10124 0 0 0 0 0 255
1.06332 -0.11836 2.08321 0 0 0 0 0 255
1.04954 -0.114552 2.06519 0 0 0 0 0 255
1.03575 -0.110743 2.04716 0 0 0 0 0 255
1.02197 -0.106934 2.02914 0 0 0 0 0 255
1.00818 -0.103126 2.01111 0 0 0 0 0 255
0.994396 -0.099317 1.99309 0 0 0 0 0 255
0.980612 -0.0955084 1.97506 0 0 0 0 0 255
0.966827 -0.0916998 1.95704 0 0 0 0 0 255
0.953042 -0.0878911 1.93901 0 0 0 0 0 255
0.939258 -0.0840825 1.92099 0 0 0 0 0 255
0.925473 -0.0802739 1.90296 0 0 0 0 0 255
0.911688 -0.0764653 1.88494 0 0 0 0 0 255
0.897904 -0.0726566 1.86691 0 0 0 0 0 255
0.884119 -0.068848 1.84888 0 0 0 0 0 255
0.870334 -0.0650394 1.83086 0 0 0 0 0 255
0.85655 -0.0612308 1.81283 0 0 0 0 0 255
0.842765 -0.0574221 1.79481 0 0 0 0 0 255
0.82898 -0.0536135 1.77678 0 0 0 0 0 255
0.815195 -0.0498049 1.75876 0 0 0 0 0 255
0.801411 -0.0459963 1.74073 0 0 0 0 0 255
0.787626 -0.0421876 1.72271 0 0 0 0 0 255
0.773841 -0.038379 1.70468 0 0 0 0 0 255
0.760057 -0.0345704 1.68666 0 0 0 0 0 255
0.746272 -0.0307617 1.66863 0 0 0 0 0 255
0.732487 -0.0269531 1.65061 0 0 0 0 0 255
0.718703 -0.0231445 1.63258 0 0 0 0 0 255
0.704918 -0.0193359 1.61456 0 0 0 0 0 255
0.691133 -0.0155272 1.59653 0 0 0 0 0 255
0.677349 -0.0117186 1.57851 0 0 0 0 0 255
0.663564 -0.00790999 1.56048 0 0 0 0 0 255
0.649779 -0.00410136 1.54246 0 0 0 0 0 255
0.635995 -0.000292737 1.52443 0 0 0 0 0 255
0.62221 0.00351589 1.50641 0 0 0 0 0 255
0.608425 0.00732452 1.48838 0 0 0 0 0 255
0.59464 0.0111331 1.47036 0 0 0 0 0 255
0.580856 0.0149418 1.45233 0 0 0 0 0 255
0.567071 0.0187504 1.43431 0 0 0 0 0 255
0.553286 0.022559 1.41628 0 0 0 0 0 255
0.539502 0.0263677 1.39825 0 0 0 0 0 255
0.525717 0.0301763 1.38023 0 0 0 0 0 255
0.511932 0.0339849 1.3622 0 0 0 0 0 255
0.498148 0.0377936 1.34418 0 0 0 0 0 255
0.484363 0.0416022 1.32615 0 0 0 0 0 255
0.470578 0.0454108 1.30813 0 0 0 0 0 255
0.456793 0.0492194 1.2901 0 0 0 0 0 255
0.443009 0.0530281 1.27208 0 0 0 0 0 255
0.429224 0.0568367 1.25405 0 0 0 0 0 255
0.415439 0.0606453 1.23603 0 0 0 0 0 255
0.401655 0.064454 1.218 0 0 0 0 0 255
0.38787 0.0682626 1.19998 0 0 0 0 0 255
0.374085 0.0720712 1.18195 0 0 0 0 0 255
0.3603 0.0758799 1.16393 0 0 0 0 0 255
0.346516 0.0796885 1.1459 0 0 0 0 0 255
0.332731 0.0834971 1.12788 0 0 0 0 0 255
0.318946 0.0873057 1.10985 0 0 0 0 0 255
0.305162 0.0911144 1.09183 0 0 0 0 0 255
0.291377 0.094923 1.0738 0 0 0 0 0 255
0.277592 0.0987316 1.05578 0 0 0 0 0 255
0.263808 0.10254 1.03775 0 0 0 0 0 255
0.250023 0.106349 1.01973 0 0 0 0 0 255
0.236238 0.110158 1.0017 0 0 0 0 0 255
0.222453 0.113966 0.983675 0 0 0 0 0 255
0.208669 0.117775 0.96565 0 0 0 0 0 255
0.194884 0.121583 0.947625 0 0 0 0 0 255
0.181099 0.125392 0.9296 0 0 0 0 0 255
0.167315 0.129201 0.911574 0 0 0 0 0 255
0.15353 0.133009 0.893549 0 0 0 0 0 255
0.139745 0.136818 0.875524 0 0 0 0 0 255
0.12596 0.140627 0.857499 0 0 0 0 0 255
0.112176 0.144435 0.839473 0 0 0 0 0 255
0.0983911 0.148244 0.821448 0 0 0 0 0 255
0.0846064 0.152052 0.803423 0 0 0 0 0 255
0.0708216 0.155861 0.785398 0 0 0 0 0 255
0.0570369 0.15967 0.767373 0 0 0 0 0 255
0.0432522 0.163478 0.749347 0 0 0 0 0 255
0.0294675 0.167287 0.731322 0 0 0 0 0 255
0.0156828 0.171096 0.713297 0 0 0 0 0 255
0.00189813 0.174904 0.695272 0 0 0 0 0 255
-0.0118866 0.178713 0.677247 0 0 0 0 0 255
-0.0256713 0.182521 0.659221 0 0 0 0 0 255
-0.0394559 0.18633 0.641196 0 0 0 0 0 255
-0.0532406 0.190139 0.623171 0 0 0 0 0 255
-0.0670253 0.193947 0.605146 0 0 0 0 0 255
-0.08081 0.197756 0.587121 0 0 0 0 0 255
-0.0945947 0.201565 0.569095 0 0 0 0 0 255
-0.108379 0.205373 0.55107 0 0 0 0 0 255
-0.122164 0.209182 0.533045 0 0 0 0 0 255
-0.135949 0.212991 0.51502 0 0 0 0 0 255
-0.149733 0.216799 0.496995 0 0 0 0 0 255
-0.163518 0.220608 0.47897 0 0 0 0 0 255
-0.177303 0.224416 0.460944 0 0 0 0 0 255
-0.191088 0.228225 0.442919 0 0 0 0 0 255
-0.204872 0.232034 0.424894 0 0 0 0 0 255
-0.218657 0.235842 0.406869 0 0 0 0 0 255
-0.232442 0.239651 0.388844 0 0 0 0 0 255
-0.246226 0.24346 0.370818 0 0 0 0 0 255
-0.260011 0.247268 0.352793 0 0 0 0 0 255
-0.273796 0.251077 0.334768 0 0 0 0 0 255
-0.28758 0.254885 0.316743 0 0 0 0 0 255
-0.301365 0.258694 0.298718 0 0 0 0 0 255
-0.31515 0.262503 0.280692 0 0 0 0 0 255
-0.328934 0.266311 0.262667 0 0 0 0 0 255
-0.342719 0.27012 0.244642 0 0 0 0 0 255
-0.356504 0.273929 0.226617 0 0 0 0 0 255
-0.370289 0.277737 0.208592 0 0 0 0 0 255
-0.384073 0.281546 0.190566 0 0 0 0 0 255
-0.397858 0.285354 0.172541 0 0 0 0 0 255
-0.411643 0.289163 0.154516 0 0 0 0 0 255
-0.425427 0.292972 0.136491 0 0 0 0 0 255
-0.439212 0.29678 0.118466 0 0 0 0 0 255
-0.452997 0.300589 0.10044 0 0 0 0 0 255
-0.466781 0.304398 0.0824153 0 0 0 0 0 255
-0.480566 0.308206 0.0643901 0 0 0 0 0 255
-0.494351 0.312015 0.0463649 0 0 0 0 0 255
-0.508135 0.315823 0.0283397 0 0 0 0 0 255
-0.52192 0.319632 0.0103145 0 0 0 0 0 255
-0.535705 0.323441 -0.00771068 0 0 0 0 0 255
-0.54949 0.327249 -0.0257359 0 0 0 0 0 255
-0.563274 0.331058 -0.0437611 0 0 0 0 0 255
-0.577059 0.334867 -0.0617862 0 0 0 0 0 255
-0.590844 0.338675 -0.0798114 0 0 0 0 0 255
-0.604628 0.342484 -0.0978366 0 0 0 0 0 255
-0.618413 0.346292 -0.115862 0 0 0 0 0 255
-0.632198 0.350101 -0.133887 0 0 0 0 0 255
-0.645982 0.35391 -0.151912 0 0 0 0 0 255
-0.659767 0.357718 -0.169937 0 0 0 0 0 255
-0.673552 0.361527 -0.187963 0 0 0 0 0 255
-0.687336 0.365336 -0.205988 0 0 0 0 0 255
-0.701121 0.369144 -0.224013 0 0 0 0 0 255
-0.714906 0.372953 -0.242038 0 0 0 0 0 255
-0.72869 0.376761 -0.260063 0 0 0 0 0 255
-0.742475 0.38057 -0.278089 0 0 0 0 0 255
-0.75626 0.384379 -0.296114 0 0 0 0 0 255
-0.770045 0.388187 -0.314139 0 0 0 0 0 255
-0.783829 0.391996 -0.332164 0 0 0 0 0 255
-0.797614 0.395805 -0.350189 0 0 0 0 0 255
-0.811399 0.399613 -0.368214 0 0 0 0 0 255
-0.825183 0.403422 -0.38624 0 0 0 0 0 255
-0.838968 0.40723 -0.404265 0 0 0 0 0 255
-0.852753 0.411039 -0.42229 0 0 0 0 0 255
-0.866538 0.414848 -0.440316 0 0 0 0 0 255
-0.880322 0.418656 -0.458341 0 0 0 0 0 255
-0.894107 0.422465 -0.476366 0 0 0 0 0 255
-0.907892 0.426274 -0.494391 0 0 0 0 0 255
-0.921677 0.430082 -0.512417 0 0 0 0 0 255
-0.935461 0.433891 -0.530442 0 0 0 0 0 255
-0.949246 0.4377 -0.548467 0 0 0 0 0 255
-0.963031 0.441508 -0.566492 0 0 0 0 0 255
-0.976816 0.445317 -0.584518 0 0 0 0 0 255
-0.9906 0.449126 -0.602543 0 0 0 0 0 255
-1.00439 0.452934 -0.620568 0 0 0 0 0 255
-1.01817 0.456743 -0.638594 0 0 0 0 0 255
-1.03195 0.460551 -0.656619 0 0 0 0 0 255
-1.04574 0.46436 -0.674644 0 0 0 0 0 255
-1.05952 0.468169 -0.692669 0 0 0 0 0 255
-1.07331 0.471977 -0.710695 0 0 0 0 0 255
-0.738888 -0.0858882 3.92863 0 0 0 0 0 255
-0.737652 -0.0850763 3.90547 0 0 0 0 0 255
-0.736416 -0.0842644 3.88231 0 0 0 0 0 255
-0.73518 -0.0834525 3.85916 0 0 0 0 0 255
-0.733943 -0.0826406 3.836 0 0 0 0 0 255
-0.732707 -0.0818287 3.81284 0 0 0 0 0 255
-0.731471 -0.0810169 3.78968 0 0 0 0 0 255
-0.730235 -0.080205 3.76652 0 0 0 0 0 255
-0.728999 -0.0793931 3.74336 0 0 0 0 0 255
-0.727763 -0.0785812 3.7202 0 0 0 0 0 255
-0.726527 -0.0777693 3.69704 0 0 0 0 0 255
-0.72529 -0.0769574 3.67388 0 0 0 0 0 255
-0.724054 -0.0761456 3.65072 0 0 0 0 0 255
-0.722818 -0.0753337 3.62756 0 0 0 0 0 255
-0.721582 -0.0745218 3.6044 0 0 0 0 0 255
-0.720346 -0.0737099 3.58125 0 0 0 0 0 255
-0.71911 -0.072898 3.55809 0 0 0 0 0 255
-0.717873 -0.0720861 3.53493 0 0 0 0 0 255
-0.716637 -0.0712742 3.51177 0 0 0 0 0 255
-0.715401 -0.0704624 3.48861 0 0 0 0 0 255
-0.714165 -0.0696505 3.46545 0 0 0 0 0 255
-0.712929 -0.0688386 3.44229 0 0 0 0 0 255
-0.711693 -0.0680267 3.41913 0 0 0 0 0 255
-0.710456 -0.0672148 3.39597 0 0 0 0 0 255
-0.70922 -0.0664029 3.37281 0 0 0 0 0 255
-0.707984 -0.0655911 3.34965 0 0 0 0 0 255
-0.706748 -0.0647792 3.3265 0 0 0 0 0 255
-0.705512 -0.0639673 3.30334 0 0 0 0 0 255
-0.704276 -0.0631554 3.28018 0 0 0 0 0 255
-0.70304 -0.0623435 3.25702 0 0 0 0 0 255
-0.701803 -0.0615317 3.23386 0 0 0 0 0 255
-0.700567 -0.0607198 3.2107 0 0 0 0 0 255
-0.699331 -0.0599079 3.18754 0 0 0 0 0 255
-0.698095 -0.059096 3.16438 0 0 0 0 0 255
-0.696859 -0.0582841 3.14122 0 0 0 0 0 255
-0.695623 -0.0574723 3.11806 0 0 0 0 0 255
-0.694387 -0.0566604 3.09491 0 0 0 0 0 255
-0.69315 -0.0558485 3.07175 0 0 0 0 0 255
-0.691914 -0.0550366 3.04859 0 0 0 0 0 255
-0.690678 -0.0542247 3.02543 0 0 0 0 0 255
-0.689442 -0.0534128 3.00227 0 0 0 0 0 255
-0.688206 -0.052601 2.97911 0 0 0 0 0 255
-0.68697 -0.0517891 2.95595 0 0 0 0 0 255
-0.685733 -0.0509772 2.93279 0 0 0 0 0 255
-0.684497 -0.0501653 2.90963 0 0 0 0 0 255
-0.683261 -0.0493534 2.88647 0 0 0 0 0 255
-0.682025 -0.0485416 2.86332 0 0 0 0 0 255
-0.680789 -0.0477297 2.84016 0 0 0 0 0 255
-0.679553 -0.0469178 2.817 0 0 0 0 0 255
-0.678317 -0.0461059 2.79384 0 0 0 0 0 255
-0.67708 -0.045294 2.77068 0 0 0 0 0 255
-0.675844 -0.0444822 2.74752 0 0 0 0 0 255
-0.674608 -0.0436703 2.72436 0 0 0 0 0 255
-0.673372 -0.0428584 2.7012 0 0 0 0 0 255
-0.672136 -0.0420465 2.67804 0 0 0 0 0 255
-0.6709 -0.0412346 2.65488 0 0 0 0 0 255
-0.669663 -0.0404227 2.63173 0 0 0 0 0 255
-0.668427 -0.0396109 2.60857 0 0 0 0 0 255
-0.667191 -0.038799 2.58541 0 0 0 0 0 255
-0.665955 -0.0379871 2.56225 0 0 0 0 0 255
-0.664719 -0.0371752 2.53909 0 0 0 0 0 255
-0.663483 -0.0363633 2.51593 0 0 0 0 0 255
-0.662247 -0.0355515 2.49277 0 0 0 0 0 255
-0.66101 -0.0347396 2.46961 0 0 0 0 0 255
-0.659774 -0.0339277 2.44645 0 0 0 0 0 255
-0.658538 -0.0331158 2.42329 0 0 0 0 0 255
-0.657302 -0.0323039 2.40014 0 0 0 0 0 255
-0.656066 -0.0314921 2.37698 0 0 0 0 0 255
-0.65483 -0.0306802 2.35382 0 0 0 0 0 255
-0.653594 -0.0298683 2.33066 0 0 0 0 0 255
-0.652357 -0.0290564 2.3075 0 0 0 0 0 255
-0.651121 -0.0282445 2.28434 0 0 0 0 0 255
-0.649885 -0.0274326 2.26118 0 0 0 0 0 255
-0.648649 -0.0266208 2.23802 0 0 0 0 0 255
-0.647413 -0.0258089 2.21486 0 0 0 0 0 255
-0.646177 -0.024997 2.1917 0 0 0 0 0 255
-0.64494 -0.0241851 2.16855 0 0 0 0 0 255
-0.643704 -0.0233732 2.14539 0 0 0 0 0 255
-0.642468 -0.0225614 2.12223 0 0 0 0 0 255
-0.641232 -0.0217495 2.09907 0 0 0 0 0 255
-0.639996 -0.0209376 2.07591 0 0 0 0 0 255
-0.63876 -0.0201257 2.05275 0 0 0 0 0 255
-0.637524 -0.0193138 2.02959 0 0 0 0 0 255
-0.636287 -0.0185019 2.00643 0 0 0 0 0 255
-0.635051 -0.0176901 1.98327 0 0 0 0 0 255
-0.633815 -0.0168782 1.96011 0 0 0 0 0 255
-0.632579 -0.0160663 1.93695 0 0 0 0 0 255
-0.631343 -0.0152544 1.9138 0 0 0 0 0 255
-0.630107 -0.0144425 1.89064 0 0 0 0 0 255
-0.62887 -0.0136307 1.86748 0 0 0 0 0 255
-0.627634 -0.0128188 1.84432 0 0 0 0 0 255
-0.626398 -0.0120069 1.82116 0 0 0 0 0 255
-0.625162 -0.011195 1.798 0 0 0 0 0 255
-0.623926 -0.0103831 1.77484 0 0 0 0 0 255
-0.62269 -0.00957124 1.75168 0 0 0 0 0 255
-0.621454 -0.00875936 1.72852 0 0 0 0 0 255
-0.620217 -0.00794748 1.70536 0 0 0 0 0 255
-0.618981 -0.00713559 1.68221 0 0 0 0 0 255
-0.617745 -0.00632371 1.65905 0 0 0 0 0 255
-0.616509 -0.00551183 1.63589 0 0 0 0 0 255
-0.615273 -0.00469995 1.61273 0 0 0 0 0 255
-0.614037 -0.00388807 1.58957 0 0 0 0 0 255
-0.6128 -0.00307618 1.56641 0 0 0 0 0 255
-0.611564 -0.0022643 1.54325 0 0 0 0 0 255
-0.610328 -0.00145242 1.52009 0 0 0 0 0 255
-0.609092 -0.000640537 1.49693 0 0 0 0 0 255
-0.607856 0.000171345 1.47377 0 0 0 0 0 255
-0.60662 0.000983228 1.45061 0 0 0 0 0 255
-0.605384 0.00179511 1.42746 0 0 0 0 0 255
-0.604147 0.00260699 1.4043 0 0 0 0 0 255
-0.602911 0.00341887 1.38114 0 0 0 0 0 255
-0.601675 0.00423076 1.35798 0 0 0 0 0 255
-0.600439 0.00504264 1.33482 0 0 0 0 0 255
-0.599203 0.00585452 1.31166 0 0 0 0 0 255
-0.597967 0.0066664 1.2885 0 0 0 0 0 255
-0.596731 0.00747829 1.26534 0 0 0 0 0 255
-0.595494 0.00829017 1.24218 0 0 0 0 0 255
-0.594258 0.00910205 1.21902 0 0 0 0 0 255
-0.593022 0.00991393 1.19587 0 0 0 0 0 255
-0.591786 0.0107258 1.17271 0 0 0 0 0 255
-0.59055 0.0115377 1.14955 0 0 0 0 0 255
-0.589314 0.0123496 1.12639 0 0 0 0 0 255
-0.588077 0.0131615 1.10323 0 0 0 0 0 255
-0.586841 0.0139733 1.08007 0 0 0 0 0 255
-0.585605 0.0147852 1.05691 0 0 0 0 0 255
-0.584369 0.0155971 1.03375 0 0 0 0 0 255
-0.583133 0.016409 1.01059 0 0 0 0 0 255
-0.581897 0.0172209 0.987434 0 0 0 0 0 255
-0.580661 0.0180327 0.964275 0 0 0 0 0 255
-0.579424 0.0188446 0.941116 0 0 0 0 0 255
-0.578188 0.0196565 0.917957 0 0 0 0 0 255
-0.576952 0.0204684 0.894798 0 0 0 0 0 255
-0.575716 0.0212803 0.871639 0 0 0 0 0 255
-0.57448 0.0220922 0.84848 0 0 0 0 0 255
-0.573244 0.022904 0.825321 0 0 0 0 0 255
-0.572007 0.0237159 0.802162 0 0 0 0 0 255
-0.570771 0.0245278 0.779003 0 0 0 0 0 255
-0.569535 0.0253397 0.755844 0 0 0 0 0 255
-0.568299 0.0261516 0.732685 0 0 0 0 0 255
-0.567063 0.0269634 0.709526 0 0 0 0 0 255
-0.565827 0.0277753 0.686367 0 0 0 0 0 255
-0.564591 0.0285872 0.663208 0 0 0 0 0 255
-0.563354 0.0293991 0.640049 0 0 0 0 0 255
-0.562118 0.030211 0.61689 0 0 0 0 0 255
-0.560882 0.0310229 0.593731 0 0 0 0 0 255
-0.559646 0.0318347 0.570572 0 0 0 0 0 255
-0.55841 0.0326466 0.547413 0 0 0 0 0 255
-0.557174 0.0334585 0.524254 0 0 0 0 0 255
-0.555937 0.0342704 0.501095 0 0 0 0 0 255
-0.554701 0.0350823 0.477936 0 0 0 0 0 255
-0.553465 0.0358941 0.454777 0 0 0 0 0 255
-0.552229 0.036706 0.431618 0 0 0 0 0 255
-0.550993 0.0375179 0.408459 0 0 0 0 0 255
-0.549757 0.0383298 0.3853 0 0 0 0 0 255
-0.548521 0.0391417 0.362141 0 0 0 0 0 255
-0.547284 0.0399535 0.338982 0 0 0 0 0 255
-0.546048 0.0407654 0.315823 0 0 0 0 0 255
-0.544812 0.0415773 0.292664 0 0 0 0 0 255
-0.543576 0.0423892 0.269505 0 0 0 0 0 255
-0.54234 0.0432011 0.246346 0 0 0 0 0 255
-0.541104 0.044013 0.223187 0 0 0 0 0 255
-0.539868 0.0448248 0.200028 0 0 0 0 0 255
-0.538631 0.0456367 0.176869 0 0 0 0 0 255
-0.537395 0.0464486 0.15371 0 0 0 0 0 255
-0.536159 0.0472605 0.130551 0 0 0 0 0 255
-0.534923 0.0480724 0.107392 0 0 0 0 0 255
-0.533687 0.0488842 0.0842325 0 0 0 0 0 255
-0.532451 0.0496961 0.0610735 0 0 0 0 0 255
-0.531214 0.050508 0.0379145 0 0 0 0 0 255
-0.529978 0.0513199 0.0147554 0 0 0 0 0 255
-0.528742 0.0521318 -0.00840358 0 0 0 0 0 255
-0.527506 0.0529436 -0.0315626 0 0 0 0 0 255
-0.52627 0.0537555 -0.0547216 0 0 0 0 0 255
-0.525034 0.0545674 -0.0778806 0 0 0 0 0 255
-0.523798 0.0553793 -0.10104 0 0 0 0 0 255
-0.522561 0.0561912 -0.124199 0 0 0 0 0 255
-0.521325 0.0570031 -0.147358 0 0 0 0 0 255
-0.520089 0.0578149 -0.170517 0 0 0 0 0 255
-0.518853 0.0586268 -0.193676 0 0 0 0 0 255
-0.517617 0.0594387 -0.216835 0 0 0 0 0 255
-0.516381 0.0602506 -0.239994 0 0 0 0 0 255
-0.515144 0.0610625 -0.263153 0 0 0 0 0 255
-0.513908 0.0618743 -0.286312 0 0 0 0 0 255
-0.512672 0.0626862 -0.309471 0 0 0 0 0 255
-0.511436 0.0634981 -0.33263 0 0 0 0 0 255
-0.5102 0.06431 -0.355789 0 0 0 0 0 255
-0.508964 0.0651219 -0.378948 0 0 0 0 0 255
-0.507728 0.0659338 -0.402108 0 0 0 0 0 255
-0.506491 0.0667457 -0.425267 0 0 0 0 0 255
-0.505255 0.0675575 -0.448426 0 0 0 0 0 255
-0.504019 0.0683694 -0.471585 0 0 0 0 0 255
-0.502783 0.0691813 -0.494744 0 0 0 0 0 255
-0.501547 0.0699932 -0.517903 0 0 0 0 0 255
-0.500311 0.0708051 -0.541062 0 0 0 0 0 255
-0.499074 0.071617 -0.564221 0 0 0 0 0 255
-0.497838 0.0724289 -0.587381 0 0 0 0 0 255
-0.496602 0.0732407 -0.61054 0 0 0 0 0 255
-0.495366 0.0740526 -0.633699 0 0 0 0 0 255
-0.49413 0.0748645 -0.656858 0 0 0 0 0 255
-0.492894 0.0756764 -0.680017 0 0 0 0 0 255
-0.889476 -0.457196 3.36706 0 0 0 255 255 255
-0.881474 -0.452554 3.34283 0 0 0 255 255 255
-0.873471 -0.447912 3.31861 0 0 0 255 255 255
-0.865469 -0.44327 3.29439 0 0 0 255 255 255
-0.857467 -0.438628 3.27017 0 0 0 255 255 255
-0.849464 -0.433987 3.24595 0 0 0 255 255 255
-0.841462 -0.429345 3.22173 0 0 0 255 255 255
-0.833459 -0.424703 3.19751 0 0 0 255 255 255
-0.825457 -0.420061 3.17329 0 0 0 255 255 255
-0.817455 -0.415419 3.14907 0 0 0 255 255 255
-0.809452 -0.410777 3.12485 0 0 0 255 255 255
-0.80145 -0.406136 3.10063 0 0 0 255 255 255
-0.793447 -0.401494 3.07641 0 0 0 255 255 255
-0.785445 -0.396852 3.05219 0 0 0 255 255 255
-0.777443 -0.39221 3.02797 0 0 0 255 255 255
-0.76944 -0.387568 3.00375 0 0 0 255 255 255
-0.761438 -0.382927 2.97953 0 0 0 255 255 255
-0.753435 -0.378285 2.95531 0 0 0 255 255 255
-0.745433 -0.373643 2.93109 0 0 0 255 255 255
-0.737431 -0.369001 2.90687 0 0 0 255 255 255
-0.729428 -0.364359 2.88265 0 0 0 255 255 255
-0.721426 -0.359717 2.85843 0 0 0 255 255 255
-0.713423 -0.355076 2.83421 0 0 0 255 255 255
-0.705421 -0.350434 2.80999 0 0 0 255 255 255
-0.697419 -0.345792 2.78577 0 0 0 255 255 255
-0.689416 -0.34115 2.76155 0 0 0 255 255 255
-0.681414 -0.336509 2.73733 0 0 0 255 255 255
-0.673412 -0.331867 2.71311 0 0 0 255 255 255
-0.665409 -0.327225 2.68889 0 0 0 255 255 255
-0.657407 -0.322583 2.66467 0 0 0 255 255 255
-0.649405 -0.317941 2.64045 0 0 0 255 255 255
-0.641402 -0.3133 2.61623 0 0 0 255 255 255
-0.6334 -0.308658 2.59201 0 0 0 255 255 255
-0.625397 -0.304016 2.56779 0 0 0 255 255 255
-0.617395 -0.299374 2.54357 0 0 0 255 255 255
-0.609393 -0.294732 2.51935 0 0 0 255 255 255
-0.60139 -0.290091 2.49513 0 0 0 255 255 255
-0.593388 -0.285449 2.47091 0 0 0 255 255 255
-0.585386 -0.280807 2.44669 0 0 0 255 255 255
-0.577383 -0.276165 2.42247 0 0 0 255 255 255
-0.569381 -0.271523 2.39825 0 0 0 255 255 255
-0.561378 -0.266882 2.37403 0 0 0 255 255 255
-0.553376 -0.26224 2.34981 0 0 0 255 255 255
-0.545374 -0.257598 2.32559 0 0 0 255 255 255
-0.537371 -0.252956 2.30137 0 0 0 255 255 255
-0.529369 -0.248314 2.27715 0 0 0 255 255 255
-0.521367 -0.243673 2.25293 0 0 0 255 255 255
-0.513364 -0.239031 2.22871 0 0 0 255 255 255
-0.505362 -0.234389 2.20449 0 0 0 255 255 255
-0.49736 -0.229747 2.18027 0 0 0 255 255 255
-0.489357 -0.225105 2.15605 0 0 0 255 255 255
-0.481355 -0.220464 2.13183 0 0 0 255 255 255
-0.473352 -0.215822 2.10761 0 0 0 255 255 255
-0.46535 -0.21118 2.08339 0 0 0 255 255 255
-0.457348 -0.206538 2.05917 0 0 0 255 255 255
-0.449345 -0.201896 2.03495 0 0 0 255 255 255
-0.441343 -0.197255 2.01073 0 0 0 255 255 255
-0.433341 -0.192613 1.98651 0 0 0 255 255 255
-0.425338 -0.187971 1.96229 0 0 0 255 255 255
-0.417336 -0.183329 1.93807 0 0 0 255 255 255
-0.409334 -0.178687 1.91384 0 0 0 255 255 255
-0.401331 -0.174046 1.88962 0 0 0 255 255 255
-0.393329 -0.169404 1.8654 0 0 0 255 255 255
-0.385326 -0.164762 1.84118 0 0 0 255 255 255
-0.377324 -0.16012 1.81696 0 0 0 255 255 255
-0.369322 -0.155478 1.79274 0 0 0 255 255 255
-0.361319 -0.150837 1.76852 0 0 0 255 255 255
-0.353317 -0.146195 1.7443 0 0 0 255 255 255
-0.345315 -0.141553 1.72008 0 0 0 255 255 255
-0.337312 -0.136911 1.69586 0 0 0 255 255 255
-0.32931 -0.13227 1.67164 0 0 0 255 255 255
-0.321308 -0.127628 1.64742 0 0 0 255 255 255
-0.313305 -0.122986 1.6232 0 0 0 255 255 255
-0.305303 -0.118344 1.59898 0 0 0 255 255 255
-0.2973 -0.113702 1.57476 0 0 0 255 255 255
-0.289298 -0.109061 1.55054 0 0 0 255 255 255
-0.281296 -0.104419 1.52632 0 0 0 255 255 255
-0.273293 -0.099777 1.5021 0 0 0 255 255 255
-0.265291 -0.0951352 1.47788 0 0 0 255 255 255
-0.257289 -0.0904934 1.45366 0 0 0 255 255 255
-0.249286 -0.0858516 1.42944 0 0 0 255 255 255
-0.241284 -0.0812098 1.40522 0 0 0 255 255 255
-0.233282 -0.076568 1.381 0 0 0 255 255 255
-0.225279 -0.0719262 1.35678 0 0 0 255 255 255
-0.217277 -0.0672844 1.33256 0 0 0 255 255 255
-0.209274 -0.0626426 1.30834 0 0 0 255 255 255
-0.201272 -0.0580008 1.28412 0 0 0 255 255 255
-0.19327 -0.053359 1.2599 0 0 0 255 255 255
-0.185267 -0.0487172 1.23568 0 0 0 255 255 255
-0.177265 -0.0440754 1.21146 0 0 0 255 255 255
-0.169263 -0.0394336 1.18724 0 0 0 255 255 255
-0.16126 -0.0347918 1.16302 0 0 0 255 255 255
-0.153258 -0.03015 1.1388 0 0 0 255 255 255
-0.145255 -0.0255082 1.11458 0 0 0 255 255 255
-0.137253 -0.0208664 1.09036 0 0 0 255 255 255
-0.129251 -0.0162246 1.06614 0 0 0 255 255 255
-0.121248 -0.0115828 1.04192 0 0 0 255 255 255
-0.113246 -0.00694096 1.0177 0 0 0 255 255 255
-0.105244 -0.00229916 0.993479 0 0 0 255 255 255
-0.0972412 0.00234264 0.969259 0 0 0 255 255 255
-0.0892388 0.00698444 0.945039 0 0 0 255 255 255
-0.0812364 0.0116262 0.920819 0 0 0 255 255 255
-0.0732341 0.016268 0.896599 0 0 0 255 255 255
-0.0652317 0.0209098 0.872379 0 0 0 255 255 255
-0.0572293 0.0255516 0.848158 0 0 0 255 255 255
-0.0492269 0.0301934 0.823938 0 0 0 255 255 255
-0.0412246 0.0348352 0.799718 0 0 0 255 255 255
-0.0332222 0.039477 0.775498 0 0 0 255 255 255
-0.0252198 0.0441188 0.751278 0 0 0 255 255 255
-0.0172175 0.0487606 0.727058 0 0 0 255 255 255
-0.00921508 0.0534024 0.702837 0 0 0 255 255 255
-0.00121271 0.0580442 0.678617 0 0 0 255 255 255
0.00678966 0.062686 0.654397 0 0 0 255 255 255
0.014792 0.0673278 0.630177 0 0 0 255 255 255
0.0227944 0.0719696 0.605957 0 0 0 255 255 255
0.0307968 0.0766114 0.581737 0 0 0 255 255 255
0.0387992 0.0812532 0.557517 0 0 0 255 255 255
0.0468015 0.085895 0.533296 0 0 0 255 255 255
0.0548039 0.0905368 0.509076 0 0 0 255 255 255
0.0628063 0.0951786 0.484856 0 0 0 255 255 255
0.0708087 0.0998204 0.460636 0 0 0 255 255 255
0.078811 0.104462 0.436416 0 0 0 255 255 255
0.0868134 0.109104 0.412196 0 0 0 255 255 255
0.0948158 0.113746 0.387975 0 0 0 255 255 255
0.102818 0.118388 0.363755 0 0 0 255 255 255
0.11082 0.123029 0.339535 0 0 0 255 255 255
0.118823 0.127671 0.315315 0 0 0 255 255 255
0.126825 0.132313 0.291095 0 0 0 255 255 255
0.134828 0.136955 0.266875 0 0 0 255 255 255
0.14283 0.141597 0.242655 0 0 0 255 255 255
0.150832 0.146238 0.218435 0 0 0 255 255 255
0.158835 0.15088 0.194214 0 0 0 255 255 255
0.166837 0.155522 0.169994 0 0 0 255 255 255
0.174839 0.160164 0.145774 0 0 0 255 255 255
0.182842 0.164806 0.121554 0 0 0 255 255 255
0.190844 0.169447 0.0973339 0 0 0 255 255 255
0.198846 0.174089 0.0731137 0 0 0 255 255 255
0.206849 0.178731 0.0488936 0 0 0 255 255 255
0.214851 0.183373 0.0246735 0 0 0 255 255 255
0.222854 0.188015 0.00045332 0 0 0 255 255 255
0.230856 0.192656 -0.0237669 0 0 0 255 255 255
0.238858 0.197298 -0.047987 0 0 0 255 255 255
0.246861 0.20194 -0.0722071 0 0 0 255 255 255
0.254863 0.206582 -0.0964273 0 0 0 255 255 255
0.262865 0.211224 -0.120647 0 0 0 255 255 255
0.270868 0.215865 -0.144868 0 0 0 255 255 255
0.27887 0.220507 -0.169088 0 0 0 255 255 255
0.286873 0.225149 -0.193308 0 0 0 255 255 255
0.294875 0.229791 -0.217528 0 0 0 255 255 255
0.302877 0.234433 -0.241748 0 0 0 255 255 255
0.31088 0.239074 -0.265968 0 0 0 255 255 255
0.318882 0.243716 -0.290188 0 0 0 255 255 255
0.326884 0.248358 -0.314408 0 0 0 255 255 255
0.334887 0.253 -0.338629 0 0 0 255 255 255
0.342889 0.257641 -0.362849 0 0 0 255 255 255
0.350891 0.262283 -0.387069 0 0 0 255 255 255
0.358894 0.266925 -0.411289 0 0 0 255 255 255
0.366896 0.271567 -0.435509 0 0 0 255 255 255
0.374899 0.276209 -0.459729 0 0 0 255 255 255
0.382901 0.28085 -0.483949 0 0 0 255 255 255
0.390903 0.285492 -0.50817 0 0 0 255 255 255
0.398906 0.290134 -0.53239 0 0 0 255 255 255
0.406908 0.294776 -0.55661 0 0 0 255 255 255
0.41491 0.299418 -0.58083 0 0 0 255 255 255
0.422913 0.304059 -0.60505 0 0 0 255 255 255
0.430915 0.308701 -0.62927 0 0 0 255 255 255
0.438917 0.313343 -0.65349 0 0 0 255 255 255
0.44692 0.317985 -0.67771 0 0 0 255 255 255
0.454922 0.322627 -0.701931 0 0 0 255 255 255
0.462925 0.327268 -0.726151 0 0 0 255 255 255
0.470927 0.33191 -0.750371 0 0 0 255 255 255
0.478929 0.336552 -0.774591 0 0 0 255 255 255
0.486932 0.341194 -0.798811 0 0 0 255 255 255
0.494934 0.345836 -0.823031 0 0 0 255 255 255
0.502936 0.350477 -0.847251 0 0 0 255 255 255
0.510939 0.355119 -0.871472 0 0 0 255 255 255
0.518941 0.359761 -0.895692 0 0 0 255 255 255
0.526943 0.364403 -0.919912 0 0 0 255 255 255
0.534946 0.369045 -0.944132 0 0 0 255 255 255
0.542948 0.373686 -0.968352 0 0 0 255 255 255
0.550951 0.378328 -0.992572 0 0 0 255 255 255
0.558953 0.38297 -1.01679 0 0 0 255 255 255
0.566955 0.387612 -1.04101 0 0 0 255 255 255
0.574958 0.392254 -1.06523 0 0 0 255 255 255
0.58296 0.396895 -1.08945 0 0 0 255 255 255
0.590963 0.401537 -1.11367 0 0 0 255 255 255
0.598965 0.406179 -1.13789 0 0 0 255 255 255
0.606967 0.410821 -1.16211 0 0 0 255 255 255
0.61497 0.415463 -1.18633 0 0 0 255 255 255
0.622972 0.420105 -1.21055 0 0 0 255 255 255
0.630975 0.424746 -1.23477 0 0 0 255 255 255
0.638977 0.429388 -1.25899 0 0 0 255 255 255
0.646979 0.43403 -1.28322 0 0 0 255 255 255
0.654982 0.438672 -1.30744 0 0 0 255 255 255
0.662984 0.443314 -1.33166 0 0 0 255 255 255
0.670987 0.447955 -1.35588 0 0 0 255 255 255
0.678989 0.452597 -1.3801 0 0 0 255 255 255
0.686991 0.457239 -1.40432 0 0 0 255 255 255
0.694994 0.461881 -1.42854 0 0 0 255 255 255
0.702996 0.466523 -1.45276 0 0 0 255 255 255
1.02656 0.0842853 3.50744 0 0 0 255 255 255
1.02086 0.0843674 3.48239 0 0 0 255 255 255
1.01517 0.0844494 3.45735 0 0 0 255 255 255
1.00947 0.0845315 3.43231 0 0 0 255 255 255
1.00378 0.0846135 3.40726 0 0 0 255 255 255
0.998079 0.0846956 3.38222 0 0 0 255 255 255
0.992384 0.0847776 3.35718 0 0 0 255 255 255
0.986688 0.0848597 3.33213 0 0 0 255 255 255
0.980992 0.0849417 3.30709 0 0 0 255 255 255
0.975297 0.0850238 3.28205 0 0 0 255 255 255
0.969601 0.0851058 3.25701 0 0 0 255 255 255
0.963905 0.0851879 3.23196 0 0 0 255 255 255
0.95821 0.0852699 3.20692 0 0 0 255 255 255
0.952514 0.085352 3.18188 0 0 0 255 255 255
0.946818 0.085434 3.15683 0 0 0 255 255 255
0.941122 0.0855161 3.13179 0 0 0 255 255 255
0.935427 0.0855981 3.10675 0 0 0 255 255 255
0.929731 0.0856802 3.0817 0 0 0 255 255 255
0.924035 0.0857622 3.05666 0 0 0 255 255 255
0.91834 0.0858443 3.03162 0 0 0 255 255 255
0.912644 0.0859263 3.00657 0 0 0 255 255 255
0.906948 0.0860084 2.98153 0 0 0 255 255 255
0.901253 0.0860904 2.95649 0 0 0 255 255 255
0.895557 0.0861725 2.93144 0 0 0 255 255 255
0.889861 0.0862545 2.9064 0 0 0 255 255 255
0.884166 0.0863366 2.88136 0 0 0 255 255 255
0.87847 0.0864186 2.85631 0 0 0 255 255 255
0.872774 0.0865007 2.83127 0 0 0 255 255 255
0.867079 0.0865827 2.80623 0 0 0 255 255 255
0.861383 0.0866648 2.78118 0 0 0 255 255 255
0.855687 0.0867468 2.75614 0 0 0 255 255 255
0.849991 0.0868289 2.7311 0 0 0 255 255 255
0.844296 0.0869109 2.70606 0 0 0 255 255 255
0.8386 0.086993 2.68101 0 0 0 255 255 255
0.832904 0.087075 2.65597 0 0 0 255 255 255
0.827209 0.0871571 2.63093 0 0 0 255 255 255
0.821513 0.0872391 2.60588 0 0 0 255 255 255
0.815817 0.0873212 2.58084 0 0 0 255 255 255
0.810122 0.0874032 2.5558 0 0 0 255 255 255
0.804426 0.0874853 2.53075 0 0 0 255 255 255
0.79873 0.0875673 2.50571 0 0 0 255 255 255
0.793035 0.0876494 2.48067 0 0 0 255 255 255
0.787339 0.0877314 2.45562 0 0 0 255 255 255
0.781643 0.0878135 2.43058 0 0 0 255 255 255
0.775948 0.0878955 2.40554 0 0 0 255 255 255
0.770252 0.0879776 2.38049 0 0 0 255 255 255
0.764556 0.0880596 2.35545 0 0 0 255 255 255
0.758861 0.0881417 2.33041 0 0 0 255 255 255
0.753165 0.0882237 2.30537 0 0 0 255 255 255
0.747469 0.0883058 2.28032 0 0 0 255 255 255
0.741774 0.0883878 2.25528 0 0 0 255 255 255
0.736078 0.0884699 2.23024 0 0 0 255 255 255
0.730382 0.0885519 2.20519 0 0 0 255 255 255
0.724687 0.088634 2.18015 0 0 0 255 255 255
0.718991 0.088716 2.15511 0 0 0 255 255 255
0.713295 0.0887981 2.13006 0 0 0 255 255 255
0.7076 0.0888801 2.10502 0 0 0 255 255 255
0.701904 0.0889622 2.07998 0 0 0 255 255 255
0.696208 0.0890442 2.05493 0 0 0 255 255 255
0.690513 0.0891263 2.02989 0 0 0 255 255 255
0.684817 0.0892083 2.00485 0 0 0 255 255 255
0.679121 0.0892904 1.9798 0 0 0 255 255 255
0.673425 0.0893724 1.95476 0 0 0 255 255 255
0.66773 0.0894545 1.92972 0 0 0 255 255 255
0.662034 0.0895365 1.90468 0 0 0 255 255 255
0.656338 0.0896186 1.87963 0 0 0 255 255 255
0.650643 0.0897006 1.85459 0 0 0 255 255 255
0.644947 0.0897827 1.82955 0 0 0 255 255 255
0.639251 0.0898647 1.8045 0 0 0 255 255 255
0.633556 0.0899468 1.77946 0 0 0 255 255 255
0.62786 0.0900288 1.75442 0 0 0 255 255 255
0.622164 0.0901109 1.72937 0 0 0 255 255 255
0.616469 0.0901929 1.70433 0 0 0 255 255 255
0.610773 0.090275 1.67929 0 0 0 255 255 255
0.605077 0.090357 1.65424 0 0 0 255 255 255
0.599382 0.0904391 1.6292 0 0 0 255 255 255
0.593686 0.0905211 1.60416 0 0 0 255 255 255
0.58799 0.0906032 1.57911 0 0 0 255 255 255
0.582295 0.0906852 1.55407 0 0 0 255 255 255
0.576599 0.0907673 1.52903 0 0 0 255 255 255
0.570903 0.0908493 1.50399 0 0 0 255 255 255
0.565208 0.0909314 1.47894 0 0 0 255 255 255
0.559512 0.0910134 1.4539 0 0 0 255 255 255
0.553816 0.0910955 1.42886 0 0 0 255 255 255
0.548121 0.0911775 1.40381 0 0 0 255 255 255
0.542425 0.0912596 1.37877 0 0 0 255 255 255
0.536729 0.0913416 1.35373 0 0 0 255 255 255
0.531033 0.0914237 1.32868 0 0 0 255 255 255
0.525338 0.0915057 1.30364 0 0 0 255 255 255
0.519642 0.0915878 1.2786 0 0 0 255 255 255
0.513946 0.0916698 1.25355 0 0 0 255 255 255
0.508251 0.0917519 1.22851 0 0 0 255 255 255
0.502555 0.0918339 1.20347 0 0 0 255 255 255
0.496859 0.091916 1.17842 0 0 0 255 255 255
0.491164 0.091998 1.15338 0 0 0 255 255 255
0.485468 0.0920801 1.12834 0 0 0 255 255 255
0.479772 0.0921621 1.10329 0 0 0 255 255 255
0.474077 0.0922442 1.07825 0 0 0 255 255 255
0.468381 0.0923262 1.05321 0 0 0 255 255 255
0.462685 0.0924083 1.02817 0 0 0 255 255 255
0.45699 0.0924903 1.00312 0 0 0 255 255 255
0.451294 0.0925724 0.978079 0 0 0 255 255 255
0.445598 0.0926544 0.953036 0 0 0 255 255 255
0.439903 0.0927365 0.927992 0 0 0 255 255 255
0.434207 0.0928185 0.902949 0 0 0 255 255 255
0.428511 0.0929005 0.877906 0 0 0 255 255 255
0.422816 0.0929826 0.852863 0 0 0 255 255 255
0.41712 0.0930646 0.82782 0 0 0 255 255 255
0.411424 0.0931467 0.802777 0 0 0 255 255 255
0.405728 0.0932287 0.777733 0 0 0 255 255 255
0.400033 0.0933108 0.75269 0 0 0 255 255 255
0.394337 0.0933928 0.727647 0 0 0 255 255 255
0.388641 0.0934749 0.702604 0 0 0 255 255 255
0.382946 0.0935569 0.677561 0 0 0 255 255 255
0.37725 0.093639 0.652518 0 0 0 255 255 255
0.371554 0.093721 0.627475 0 0 0 255 255 255
0.365859 0.0938031 0.602431 0 0 0 255 255 255
0.360163 0.0938851 0.577388 0 0 0 255 255 255
0.354467 0.0939672 0.552345 0 0 0 255 255 255
0.348772 0.0940492 0.527302 0 0 0 255 255 255
0.343076 0.0941313 0.502259 0 0 0 255 255 255
0.33738 0.0942133 0.477216 0 0 0 255 255 255
0.331685 0.0942954 0.452172 0 0 0 255 255 255
0.325989 0.0943774 0.427129 0 0 0 255 255 255
0.320293 0.0944595 0.402086 0 0 0 255 255 255
0.314598 0.0945415 0.377043 0 0 0 255 255 255
0.308902 0.0946236 0.352 0 0 0 255 255 255
0.303206 0.0947056 0.326957 0 0 0 255 255 255
0.297511 0.0947877 0.301914 0 0 0 255 255 255
0.291815 0.0948697 0.276871 0 0 0 255 255 255
0.286119 0.0949518 0.251827 0 0 0 255 255 255
0.280423 0.0950338 0.226784 0 0 0 255 255 255
0.274728 0.0951159 0.201741 0 0 0 255 255 255
0.269032 0.0951979 0.176698 0 0 0 255 255 255
0.263336 0.09528 0.151655 0 0 0 255 255 255
0.257641 0.095362 0.126612 0 0 0 255 255 255
0.251945 0.0954441 0.101569 0 0 0 255 255 255
0.246249 0.0955261 0.0765255 0 0 0 255 255 255
0.240554 0.0956082 0.0514824 0 0 0 255 255 255
0.234858 0.0956902 0.0264392 0 0 0 255 255 255
0.229162 0.0957723 0.00139606 0 0 0 255 255 255
0.223467 0.0958543 -0.0236471 0 0 0 255 255 255
0.217771 0.0959364 -0.0486902 0 0 0 255 255 255
0.212075 0.0960184 -0.0737333 0 0 0 255 255 255
0.20638 0.0961005 -0.0987765 0 0 0 255 255 255
0.200684 0.0961825 -0.12382 0 0 0 255 255 255
0.194988 0.0962646 -0.148863 0 0 0 255 255 255
0.189293 0.0963466 -0.173906 0 0 0 255 255 255
0.183597 0.0964287 -0.198949 0 0 0 255 255 255
0.177901 0.0965107 -0.223992 0 0 0 255 255 255
0.172206 0.0965928 -0.249035 0 0 0 255 255 255
0.16651 0.0966748 -0.274078 0 0 0 255 255 255
0.160814 0.0967569 -0.299121 0 0 0 255 255 255
0.155119 0.0968389 -0.324165 0 0 0 255 255 255
0.149423 0.096921 -0.349208 0 0 0 255 255 255
0.143727 0.097003 -0.374251 0 0 0 255 255 255
0.138032 0.0970851 -0.399294 0 0 0 255 255 255
0.132336 0.0971671 -0.424337 0 0 0 255 255 255
0.12664 0.0972492 -0.44938 0 0 0 255 255 255
0.120944 0.0973312 -0.474423 0 0 0 255 255 255
0.115249 0.0974133 -0.499467 0 0 0 255 255 255
0.109553 0.0974953 -0.52451 0 0 0 255 255 255
0.103857 0.0975774 -0.549553 0 0 0 255 255 255
0.0981618 0.0976594 -0.574596 0 0 0 255 255 255
0.0924661 0.0977415 -0.599639 0 0 0 255 255 255
0.0867704 0.0978235 -0.624682 0 0 0 255 255 255
0.0810748 0.0979056 -0.649725 0 0 0 255 255 255
0.0753791 0.0979876 -0.674768 0 0 0 255 255 255
0.0696834 0.0980697 -0.699812 0 0 0 255 255 255
0.0639877 0.0981517 -0.724855 0 0 0 255 255 255
0.058292 0.0982338 -0.749898 0 0 0 255 255 255
0.0525964 0.0983158 -0.774941 0 0 0 255 255 255
0.0469007 0.0983979 -0.799984 0 0 0 255 255 255
0.041205 0.0984799 -0.825027 0 0 0 255 255 255
0.0355093 0.098562 -0.85007 0 0 0 255 255 255
0.0298137 0.098644 -0.875113 0 0 0 255 255 255
0.024118 0.0987261 -0.900157 0 0 0 255 255 255
0.0184223 0.0988081 -0.9252 0 0 0 255 255 255
0.0127266 0.0988902 -0.950243 0 0 0 255 255 255
0.00703095 0.0989722 -0.975286 0 0 0 255 255 255
0.00133527 0.0990543 -1.00033 0 0 0 255 255 255
-0.0043604 0.0991363 -1.02537 0 0 0 255 255 255
-0.0100561 0.0992184 -1.05042 0 0 0 255 255 255
-0.0157518 0.0993004 -1.07546 0 0 0 255 255 255
-0.0214475 0.0993825 -1.1005 0 0 0 255 255 255
-0.0271432 0.0994645 -1.12555 0 0 0 255 255 255
-0.0328389 0.0995466 -1.15059 0 0 0 255 255 255
-0.0385346 0.0996286 -1.17563 0 0 0 255 255 255
-0.0442303 0.0997107 -1.20068 0 0 0 255 255 255
-0.049926 0.0997927 -1.22572 0 0 0 255 255 255
-0.0556217 0.0998748 -1.25076 0 0 0 255 255 255
-0.0613174 0.0999568 -1.2758 0 0 0 255 255 255
-0.0670132 0.100039 -1.30085 0 0 0 255 255 255
-0.0727089 0.100121 -1.32589 0 0 0 255 255 255
-0.0784046 0.100203 -1.35093 0 0 0 255 255 255
-0.0841003 0.100285 -1.37598 0 0 0 255 255 255
-0.089796 0.100367 -1.40102 0 0 0 255 255 255
-0.0954917 0.100449 -1.42606 0 0 0 255 255 255
-0.101187 0.100531 -1.45111 0 0 0 255 255 255
-0.106883 0.100613 -1.47615 0 0 0 255 255 255
-2.09329 -0.285788 4.23078 0 0 0 255 255 255
-2.07656 -0.28292 4.20486 0 0 0 255 255 255
-2.05983 -0.280052 4.17894 0 0 0 255 255 255
-2.0431 -0.277184 4.15302 0 0 0 255 255 255
-2.02637 -0.274316 4.1271 0 0 0 255 255 255
-2.00964 -0.271448 4.10118 0 0 0 255 255 255
-1.99291 -0.268579 4.07526 0 0 0 255 255 255
-1.97618 -0.265711 4.04933 0 0 0 255 255 255
-1.95945 -0.262843 4.02341 0 0 0 255 255 255
-1.94271 -0.259975 3.99749 0 0 0 255 255 255
-1.92598 -0.257107 3.97157 0 0 0 255 255 255
-1.90925 -0.254239 3.94565 0 0 0 255 255 255
-1.89252 -0.251371 3.91973 0 0 0 255 255 255
-1.87579 -0.248503 3.8938 0 0 0 255 255 255
-1.85906 -0.245634 3.86788 0 0 0 255 255 255
-1.84233 -0.242766 3.84196 0 0 0 255 255 255
-1.8256 -0.239898 3.81604 0 0 0 255 255 255
-1.80887 -0.23703 3.79012 0 0 0 255 255 255
-1.79214 -0.234162 3.7642 0 0 0 255 255 255
-1.77541 -0.231294 3.73828 0 0 0 255 255 255
-1.75867 -0.228426 3.71235 0 0 0 255 255 255
-1.74194 -0.225558 3.68643 0 0 0 255 255 255
-1.72521 -0.222689 3.66051 0 0 0 255 255 255
-1.70848 -0.219821 3.63459 0 0 0 255 255 255
-1.69175 -0.216953 3.60867 0 0 0 255 255 255
-1.67502 -0.214085 3.58275 0 0 0 255 255 255
-1.65829 -0.211217 3.55683 0 0 0 255 255 255
-1.64156 -0.208349 3.5309 0 0 0 255 255 255
-1.62483 -0.205481 3.50498 0 0 0 255 255 255
-1.6081 -0.202613 3.47906 0 0 0 255 255 255
-1.59137 -0.199745 3.45314 0 0 0 255 255 255
-1.57463 -0.196876 3.42722 0 0 0 255 255 255
-1.5579 -0.194008 3.4013 0 0 0 255 255 255
-1.54117 -0.19114 3.37538 0 0 0 255 255 255
-1.52444 -0.188272 3.34945 0 0 0 255 255 255
-1.50771 -0.185404 3.32353 0 0 0 255 255 255
-1.49098 -0.182536 3.29761 0 0 0 255 255 255
-1.47425 -0.179668 3.27169 0 0 0 255 255 255
-1.45752 -0.1768 3.24577 0 0 0 255 255 255
-1.44079 -0.173932 3.21985 0 0 0 255 255 255
-1.42406 -0.171063 3.19393 0 0 0 255 255 255
-1.40733 -0.168195 3.168 0 0 0 255 255 255
-1.3906 -0.165327 3.14208 0 0 0 255 255 255
-1.37386 -0.162459 3.11616 0 0 0 255 255 255
-1.35713 -0.159591 3.09024 0 0 0 255 255 255
-1.3404 -0.156723 3.06432 0 0 0 255 255 255
-1.32367 -0.153855 3.0384 0 0 0 255 255 255
-1.30694 -0.150987 3.01248 0 0 0 255 255 255
-1.29021 -0.148119 2.98656 0 0 0 255 255 255
-1.27348 -0.14525 2.96063 0 0 0 255 255 255
-1.25675 -0.142382 2.93471 0 0 0 255 255 255
-1.24002 -0.139514 2.90879 0 0 0 255 255 255
-1.22329 -0.136646 2.88287 0 0 0 255 255 255
-1.20656 -0.133778 2.85695 0 0 0 255 255 255
-1.18982 -0.13091 2.83103 0 0 0 255 255 255
-1.17309 -0.128042 2.80511 0 0 0 255 255 255
-1.15636 -0.125174 2.77918 0 0 0 255 255 255
-1.13963 -0.122306 2.75326 0 0 0 255 255 255
-1.1229 -0.119437 2.72734 0 0 0 255 255 255
-1.10617 -0.116569 2.70142 0 0 0 255 255 255
-1.08944 -0.113701 2.6755 0 0 0 255 255 255
-1.07271 -0.110833 2.64958 0 0 0 255 255 255
-1.05598 -0.107965 2.62366 0 0 0 255 255 255
-1.03925 -0.105097 2.59773 0 0 0 255 255 255
-1.02252 -0.102229 2.57181 0 0 0 255 255 255
-1.00579 -0.0993606 2.54589 0 0 0 255 255 255
-0.989055 -0.0964925 2.51997 0 0 0 255 255 255
-0.972324 -0.0936244 2.49405 0 0 0 255 255 255
-0.955593 -0.0907563 2.46813 0 0 0 255 255 255
-0.938862 -0.0878882 2.44221 0 0 0 255 255 255
-0.922131 -0.0850201 2.41628 0 0 0 255 255 255
-0.9054 -0.082152 2.39036 0 0 0 255 255 255
