ply
format ascii 1.0
element vertex 1177
property float x
property float y
property float z
property float nx
property float ny
property float nz
property uchar red
property uchar green
property uchar blue
end_header
1.46576 2.82808 -2.35924 0 0 0 0 255 0
1.50019 2.88335 -2.43514 0 0 0 0 255 0
1.53462 2.93861 -2.51104 0 0 0 0 255 0
1.56906 2.99387 -2.58694 0 0 0 0 255 0
1.60349 3.04913 -2.66283 0 0 0 0 255 0
1.63792 3.10439 -2.73873 0 0 0 0 255 0
1.67235 3.15966 -2.81463 0 0 0 0 255 0
1.70679 3.21492 -2.89053 0 0 0 0 255 0
1.74122 3.27018 -2.96643 0 0 0 0 255 0
1.77565 3.32544 -3.04232 0 0 0 0 255 0
1.81008 3.3807 -3.11822 0 0 0 0 255 0
1.84451 3.43597 -3.19412 0 0 0 0 255 0
1.87895 3.49123 -3.27002 0 0 0 0 255 0
1.91338 3.54649 -3.34592 0 0 0 0 255 0
1.94781 3.60175 -3.42181 0 0 0 0 255 0
1.98224 3.65702 -3.49771 0 0 0 0 255 0
2.01668 3.71228 -3.57361 0 0 0 0 255 0
2.05111 3.76754 -3.64951 0 0 0 0 255 0
2.08554 3.8228 -3.72541 0 0 0 0 255 0
2.11997 3.87806 -3.8013 0 0 0 0 255 0
2.15441 3.93333 -3.8772 0 0 0 0 255 0
2.18884 3.98859 -3.9531 0 0 0 0 255 0
2.22327 4.04385 -4.029 0 0 0 0 255 0
2.2577 4.09911 -4.1049 0 0 0 0 255 0
2.29213 4.15437 -4.18079 0 0 0 0 255 0
2.32657 4.20964 -4.25669 0 0 0 0 255 0
2.361 4.2649 -4.33259 0 0 0 0 255 0
2.39543 4.32016 -4.40849 0 0 0 0 255 0
2.42986 4.37542 -4.48438 0 0 0 0 255 0
2.4643 4.43068 -4.56028 0 0 0 0 255 0
2.49873 4.48595 -4.63618 0 0 0 0 255 0
2.53316 4.54121 -4.71208 0 0 0 0 255 0
2.56759 4.59647 -4.78798 0 0 0 0 255 0
2.60203 4.65173 -4.86387 0 0 0 0 255 0
2.63646 4.707 -4.93977 0 0 0 0 255 0
2.67089 4.76226 -5.01567 0 0 0 0 255 0
2.70532 4.81752 -5.09157 0 0 0 0 255 0
2.73976 4.87278 -5.16747 0 0 0 0 255 0
2.77419 4.92805 -5.24337 0 0 0 0 255 0
2.80862 4.98331 -5.31926 0 0 0 0 255 0
2.84305 5.03857 -5.39516 0 0 0 0 255 0
2.87749 5.09383 -5.47106 0 0 0 0 255 0
2.91192 5.14909 -5.54696 0 0 0 0 255 0
2.94635 5.20436 -5.62286 0 0 0 0 255 0
2.98078 5.25962 -5.69876 0 0 0 0 255 0
3.01522 5.31488 -5.77465 0 0 0 0 255 0
3.04965 5.37014 -5.85055 0 0 0 0 255 0
3.08408 5.42541 -5.92645 0 0 0 0 255 0
3.11851 5.48067 -6.00235 0 0 0 0 255 0
3.15295 5.53593 -6.07825 0 0 0 0 255 0
3.18738 5.59119 -6.15415 0 0 0 0 255 0
1.29605 -4.05086 9.82712 0 0 0 0 255 0
1.28628 -4.00829 9.73716 0 0 0 0 255 0
1.27651 -3.96572 9.6472 0 0 0 0 255 0
1.26675 -3.92316 9.55724 0 0 0 0 255 0
1.25698 -3.88059 9.46729 0 0 0 0 255 0
1.24721 -3.83802 9.37733 0 0 0 0 255 0
1.23745 -3.79545 9.28737 0 0 0 0 255 0
1.22768 -3.75289 9.19741 0 0 0 0 255 0
1.21791 -3.71032 9.10745 0 0 0 0 255 0
1.20814 -3.66775 9.01749 0 0 0 0 255 0
1.19838 -3.62518 8.92753 0 0 0 0 255 0
1.18861 -3.58262 8.83757 0 0 0 0 255 0
1.17884 -3.54005 8.74761 0 0 0 0 255 0
1.16907 -3.49748 8.65765 0 0 0 0 255 0
1.15931 -3.45491 8.56769 0 0 0 0 255 0
1.14954 -3.41235 8.47773 0 0 0 0 255 0
1.13977 -3.36978 8.38777 0 0 0 0 255 0
1.13 -3.32721 8.29781 0 0 0 0 255 0
1.12024 -3.28464 8.20785 0 0 0 0 255 0
1.11047 -3.24208 8.11789 0 0 0 0 255 0
1.1007 -3.19951 8.02794 0 0 0 0 255 0
1.09093 -3.15694 7.93798 0 0 0 0 255 0
1.08117 -3.11438 7.84802 0 0 0 0 255 0
1.0714 -3.07181 7.75806 0 0 0 0 255 0
1.06163 -3.02924 7.6681 0 0 0 0 255 0
1.05187 -2.98667 7.57814 0 0 0 0 255 0
1.0421 -2.94411 7.48818 0 0 0 0 255 0
1.03233 -2.90154 7.39822 0 0 0 0 255 0
1.02256 -2.85897 7.30826 0 0 0 0 255 0
1.0128 -2.8164 7.21831 0 0 0 0 255 0
1.00303 -2.77384 7.12835 0 0 0 0 255 0
0.993261 -2.73127 7.03839 0 0 0 0 255 0
0.983494 -2.6887 6.94843 0 0 0 0 255 0
0.973727 -2.64614 6.85847 0 0 0 0 255 0
0.963959 -2.60357 6.76851 0 0 0 0 255 0
0.954192 -2.561 6.67855 0 0 0 0 255 0
0.944425 -2.51843 6.58859 0 0 0 0 255 0
0.934657 -2.47587 6.49863 0 0 0 0 255 0
0.92489 -2.4333 6.40867 0 0 0 0 255 0
0.915123 -2.39073 6.31872 0 0 0 0 255 0
0.905355 -2.34817 6.22876 0 0 0 0 255 0
0.895588 -2.3056 6.1388 0 0 0 0 255 0
0.885821 -2.26303 6.04884 0 0 0 0 255 0
0.876053 -2.22046 5.95888 0 0 0 0 255 0
0.866286 -2.1779 5.86892 0 0 0 0 255 0
0.856519 -2.13533 5.77896 0 0 0 0 255 0
0.846751 -2.09276 5.689 0 0 0 0 255 0
0.836984 -2.0502 5.59904 0 0 0 0 255 0
0.827217 -2.00763 5.50909 0 0 0 0 255 0
0.817449 -1.96506 5.41913 0 0 0 0 255 0
0.807682 -1.92249 5.32917 0 0 0 0 255 0
0.797915 -1.87993 5.23921 0 0 0 0 255 0
0.788147 -1.83736 5.14925 0 0 0 0 255 0
0.77838 -1.79479 5.05929 0 0 0 0 255 0
0.768613 -1.75222 4.96933 0 0 0 0 255 0
0.758845 -1.70966 4.87937 0 0 0 0 255 0
0.749078 -1.66709 4.78941 0 0 0 0 255 0
0.739311 -1.62452 4.69945 0 0 0 0 255 0
0.729543 -1.58196 4.6095 0 0 0 0 255 0
0.719776 -1.53939 4.51954 0 0 0 0 255 0
0.710009 -1.49682 4.42958 0 0 0 0 255 0
0.700241 -1.45425 4.33962 0 0 0 0 255 0
0.690474 -1.41169 4.24966 0 0 0 0 255 0
0.680707 -1.36912 4.1597 0 0 0 0 255 0
0.670939 -1.32655 4.06974 0 0 0 0 255 0
0.661172 -1.28399 3.97978 0 0 0 0 255 0
0.651405 -1.24142 3.88982 0 0 0 0 255 0
0.641637 -1.19885 3.79987 0 0 0 0 255 0
0.63187 -1.15628 3.70991 0 0 0 0 255 0
0.622102 -1.11372 3.61995 0 0 0 0 255 0
0.612335 -1.07115 3.52999 0 0 0 0 255 0
0.602568 -1.02858 3.44003 0 0 0 0 255 0
0.5928 -0.986015 3.35007 0 0 0 0 255 0
0.583033 -0.943448 3.26011 0 0 0 0 255 0
0.573266 -0.90088 3.17015 0 0 0 0 255 0
0.563498 -0.858313 3.08019 0 0 0 0 255 0
0.553731 -0.815746 2.99023 0 0 0 0 255 0
0.543964 -0.773179 2.90028 0 0 0 0 255 0
0.534196 -0.730612 2.81032 0 0 0 0 255 0
0.524429 -0.688044 2.72036 0 0 0 0 255 0
0.514662 -0.645477 2.6304 0 0 0 0 255 0
0.504894 -0.60291 2.54044 0 0 0 0 255 0
0.495127 -0.560343 2.45048 0 0 0 0 255 0
0.48536 -0.517775 2.36052 0 0 0 0 255 0
0.475592 -0.475208 2.27056 0 0 0 0 255 0
0.465825 -0.432641 2.1806 0 0 0 0 255 0
0.456058 -0.390074 2.09064 0 0 0 0 255 0
0.44629 -0.347506 2.00069 0 0 0 0 255 0
0.436523 -0.304939 1.91073 0 0 0 0 255 0
0.426756 -0.262372 1.82077 0 0 0 0 255 0
0.416988 -0.219805 1.73081 0 0 0 0 255 0
0.407221 -0.177237 1.64085 0 0 0 0 255 0
0.397454 -0.13467 1.55089 0 0 0 0 255 0
0.387686 -0.0921028 1.46093 0 0 0 0 255 0
0.377919 -0.0495355 1.37097 0 0 0 0 255 0
0.368152 -0.00696827 1.28101 0 0 0 0 255 0
0.358384 0.035599 1.19105 0 0 0 0 255 0
0.348617 0.0781662 1.10109 0 0 0 0 255 0
0.338849 0.120733 1.01114 0 0 0 0 255 0
0.329082 0.163301 0.921177 0 0 0 0 255 0
0.319315 0.205868 0.831218 0 0 0 0 255 0
0.309547 0.248435 0.741258 0 0 0 0 255 0
0.29978 0.291002 0.651299 0 0 0 0 255 0
0.290013 0.33357 0.56134 0 0 0 0 255 0
0.280245 0.376137 0.471381 0 0 0 0 255 0
0.270478 0.418704 0.381422 0 0 0 0 255 0
0.260711 0.461271 0.291463 0 0 0 0 255 0
0.250943 0.503839 0.201504 0 0 0 0 255 0
0.241176 0.546406 0.111545 0 0 0 0 255 0
0.231409 0.588973 0.0215861 0 0 0 0 255 0
0.221641 0.63154 -0.0683729 0 0 0 0 255 0
0.211874 0.674108 -0.158332 0 0 0 0 255 0
0.202107 0.716675 -0.248291 0 0 0 0 255 0
0.192339 0.759242 -0.33825 0 0 0 0 255 0
0.182572 0.80181 -0.428209 0 0 0 0 255 0
0.172805 0.844377 -0.518168 0 0 0 0 255 0
0.163037 0.886944 -0.608127 0 0 0 0 255 0
0.15327 0.929511 -0.698086 0 0 0 0 255 0
0.143503 0.972079 -0.788045 0 0 0 0 255 0
0.133735 1.01465 -0.878004 0 0 0 0 255 0
0.123968 1.05721 -0.967963 0 0 0 0 255 0
0.114201 1.09978 -1.05792 0 0 0 0 255 0
0.104433 1.14235 -1.14788 0 0 0 0 255 0
0.0946658 1.18491 -1.23784 0 0 0 0 255 0
0.0848985 1.22748 -1.3278 0 0 0 0 255 0
0.0751312 1.27005 -1.41776 0 0 0 0 255 0
0.0653638 1.31262 -1.50772 0 0 0 0 255 0
0.0555965 1.35518 -1.59768 0 0 0 0 255 0
0.0458291 1.39775 -1.68764 0 0 0 0 255 0
0.0360618 1.44032 -1.77759 0 0 0 0 255 0
0.0262945 1.48289 -1.86755 0 0 0 0 255 0
0.0165271 1.52545 -1.95751 0 0 0 0 255 0
0.00675979 1.56802 -2.04747 0 0 0 0 255 0
-0.00300755 1.61059 -2.13743 0 0 0 0 255 0
-0.0127749 1.65315 -2.22739 0 0 0 0 255 0
-0.0225422 1.69572 -2.31735 0 0 0 0 255 0
-0.0323096 1.73829 -2.40731 0 0 0 0 255 0
-0.0420769 1.78086 -2.49727 0 0 0 0 255 0
-0.0518442 1.82342 -2.58722 0 0 0 0 255 0
-0.0616116 1.86599 -2.67718 0 0 0 0 255 0
-0.0713789 1.90856 -2.76714 0 0 0 0 255 0
-0.0811463 1.95112 -2.8571 0 0 0 0 255 0
-0.0909136 1.99369 -2.94706 0 0 0 0 255 0
-0.100681 2.03626 -3.03702 0 0 0 0 255 0
-0.110448 2.07883 -3.12698 0 0 0 0 255 0
-0.120216 2.12139 -3.21694 0 0 0 0 255 0
-0.129983 2.16396 -3.3069 0 0 0 0 255 0
-0.13975 2.20653 -3.39686 0 0 0 0 255 0
-0.149518 2.2491 -3.48681 0 0 0 0 255 0
-0.159285 2.29166 -3.57677 0 0 0 0 255 0
-0.169052 2.33423 -3.66673 0 0 0 0 255 0
-0.17882 2.3768 -3.75669 0 0 0 0 255 0
-0.188587 2.41936 -3.84665 0 0 0 0 255 0
-0.198354 2.46193 -3.93661 0 0 0 0 255 0
-0.208122 2.5045 -4.02657 0 0 0 0 255 0
-0.217889 2.54707 -4.11653 0 0 0 0 255 0
-0.227656 2.58963 -4.20649 0 0 0 0 255 0
-0.237424 2.6322 -4.29644 0 0 0 0 255 0
-0.247191 2.67477 -4.3864 0 0 0 0 255 0
-0.256958 2.71733 -4.47636 0 0 0 0 255 0
-0.266726 2.7599 -4.56632 0 0 0 0 255 0
-0.276493 2.80247 -4.65628 0 0 0 0 255 0
-0.28626 2.84504 -4.74624 0 0 0 0 255 0
-0.296028 2.8876 -4.8362 0 0 0 0 255 0
-0.305795 2.93017 -4.92616 0 0 0 0 255 0
-0.315562 2.97274 -5.01612 0 0 0 0 255 0
-0.32533 3.0153 -5.10608 0 0 0 0 255 0
-0.335097 3.05787 -5.19603 0 0 0 0 255 0
-0.344864 3.10044 -5.28599 0 0 0 0 255 0
-0.354632 3.14301 -5.37595 0 0 0 0 255 0
-0.364399 3.18557 -5.46591 0 0 0 0 255 0
-0.374166 3.22814 -5.55587 0 0 0 0 255 0
-0.383934 3.27071 -5.64583 0 0 0 0 255 0
-0.393701 3.31328 -5.73579 0 0 0 0 255 0
-0.403468 3.35584 -5.82575 0 0 0 0 255 0
-0.413236 3.39841 -5.91571 0 0 0 0 255 0
-0.423003 3.44098 -6.00566 0 0 0 0 255 0
-0.43277 3.48354 -6.09562 0 0 0 0 255 0
-0.442538 3.52611 -6.18558 0 0 0 0 255 0
-0.452305 3.56868 -6.27554 0 0 0 0 255 0
-0.462072 3.61125 -6.3655 0 0 0 0 255 0
-0.47184 3.65381 -6.45546 0 0 0 0 255 0
-0.481607 3.69638 -6.54542 0 0 0 0 255 0
-0.491375 3.73895 -6.63538 0 0 0 0 255 0
-0.501142 3.78152 -6.72534 0 0 0 0 255 0
-0.510909 3.82408 -6.8153 0 0 0 0 255 0
-0.520677 3.86665 -6.90526 0 0 0 0 255 0
-0.530444 3.90922 -6.99522 0 0 0 0 255 0
-0.540211 3.95178 -7.08518 0 0 0 0 255 0
-0.549979 3.99435 -7.17513 0 0 0 0 255 0
-0.559746 4.03692 -7.26509 0 0 0 0 255 0
-0.569514 4.07949 -7.35505 0 0 0 0 255 0
-0.579281 4.12205 -7.44501 0 0 0 0 255 0
-0.589048 4.16462 -7.53497 0 0 0 0 255 0
-0.598816 4.20719 -7.62493 0 0 0 0 255 0
-0.608583 4.24976 -7.71489 0 0 0 0 255 0
-0.618351 4.29232 -7.80485 0 0 0 0 255 0
-0.628118 4.33489 -7.89481 0 0 0 0 255 0
-0.637885 4.37746 -7.98477 0 0 0 0 255 0
-0.647653 4.42003 -8.07473 0 0 0 0 255 0
-6.63178 -5.29056 7.388 0 0 0 0 255 0
-6.57212 -5.23637 7.32881 0 0 0 0 255 0
-6.51245 -5.18217 7.26963 0 0 0 0 255 0
-6.45279 -5.12797 7.21044 0 0 0 0 255 0
-6.39312 -5.07378 7.15125 0 0 0 0 255 0
-6.33346 -5.01958 7.09207 0 0 0 0 255 0
-6.2738 -4.96539 7.03288 0 0 0 0 255 0
-6.21413 -4.91119 6.97369 0 0 0 0 255 0
-6.15447 -4.85699 6.91451 0 0 0 0 255 0
-6.09481 -4.8028 6.85532 0 0 0 0 255 0
-6.03514 -4.7486 6.79613 0 0 0 0 255 0
-5.97548 -4.6944 6.73695 0 0 0 0 255 0
-5.91582 -4.64021 6.67776 0 0 0 0 255 0
-5.85615 -4.58601 6.61857 0 0 0 0 255 0
-5.79649 -4.53181 6.55939 0 0 0 0 255 0
-5.73683 -4.47762 6.5002 0 0 0 0 255 0
-5.67716 -4.42342 6.44101 0 0 0 0 255 0
-5.6175 -4.36922 6.38183 0 0 0 0 255 0
-5.55783 -4.31503 6.32264 0 0 0 0 255 0
-5.49817 -4.26083 6.26345 0 0 0 0 255 0
-5.43851 -4.20663 6.20427 0 0 0 0 255 0
-5.37884 -4.15244 6.14508 0 0 0 0 255 0
-5.31918 -4.09824 6.08589 0 0 0 0 255 0
-5.25952 -4.04405 6.02671 0 0 0 0 255 0
-5.19985 -3.98985 5.96752 0 0 0 0 255 0
-5.14019 -3.93565 5.90833 0 0 0 0 255 0
-5.08053 -3.88146 5.84915 0 0 0 0 255 0
-5.02086 -3.82726 5.78996 0 0 0 0 255 0
-4.9612 -3.77306 5.73077 0 0 0 0 255 0
-4.90154 -3.71887 5.67159 0 0 0 0 255 0
-4.84187 -3.66467 5.6124 0 0 0 0 255 0
-4.78221 -3.61048 5.55321 0 0 0 0 255 0
-4.72255 -3.55628 5.49403 0 0 0 0 255 0
-4.66288 -3.50208 5.43484 0 0 0 0 255 0
-4.60322 -3.44789 5.37565 0 0 0 0 255 0
-4.54356 -3.39369 5.31647 0 0 0 0 255 0
-4.48389 -3.3395 5.25728 0 0 0 0 255 0
-4.42423 -3.2853 5.1981 0 0 0 0 255 0
-4.36457 -3.2311 5.13891 0 0 0 0 255 0
-4.3049 -3.17691 5.07972 0 0 0 0 255 0
-4.24524 -3.12271 5.02054 0 0 0 0 255 0
-4.18558 -3.06851 4.96135 0 0 0 0 255 0
-4.12591 -3.01432 4.90216 0 0 0 0 255 0
-4.06625 -2.96012 4.84298 0 0 0 0 255 0
-4.00659 -2.90593 4.78379 0 0 0 0 255 0
-3.94692 -2.85173 4.7246 0 0 0 0 255 0
-3.88726 -2.79753 4.66542 0 0 0 0 255 0
-3.8276 -2.74334 4.60623 0 0 0 0 255 0
-3.76793 -2.68914 4.54704 0 0 0 0 255 0
-3.70827 -2.63494 4.48786 0 0 0 0 255 0
-3.64861 -2.58075 4.42867 0 0 0 0 255 0
-3.58894 -2.52655 4.36948 0 0 0 0 255 0
-3.52928 -2.47236 4.3103 0 0 0 0 255 0
-3.46962 -2.41816 4.25111 0 0 0 0 255 0
-3.40995 -2.36396 4.19192 0 0 0 0 255 0
-3.35029 -2.30977 4.13274 0 0 0 0 255 0
-3.29063 -2.25557 4.07355 0 0 0 0 255 0
-3.23096 -2.20137 4.01437 0 0 0 0 255 0
-3.1713 -2.14718 3.95518 0 0 0 0 255 0
-3.11164 -2.09298 3.89599 0 0 0 0 255 0
-3.05197 -2.03879 3.83681 0 0 0 0 255 0
-2.99231 -1.98459 3.77762 0 0 0 0 255 0
-2.93265 -1.93039 3.71843 0 0 0 0 255 0
-2.87299 -1.8762 3.65925 0 0 0 0 255 0
-2.81332 -1.822 3.60006 0 0 0 0 255 0
-2.75366 -1.7678 3.54087 0 0 0 0 255 0
-2.694 -1.71361 3.48169 0 0 0 0 255 0
-2.63433 -1.65941 3.4225 0 0 0 0 255 0
-2.57467 -1.60522 3.36331 0 0 0 0 255 0
-2.51501 -1.55102 3.30413 0 0 0 0 255 0
-2.45534 -1.49682 3.24494 0 0 0 0 255 0
-2.39568 -1.44263 3.18575 0 0 0 0 255 0
-2.33602 -1.38843 3.12657 0 0 0 0 255 0
-2.27635 -1.33423 3.06738 0 0 0 0 255 0
-2.21669 -1.28004 3.0082 0 0 0 0 255 0
-2.15703 -1.22584 2.94901 0 0 0 0 255 0
-2.09736 -1.17165 2.88982 0 0 0 0 255 0
-2.0377 -1.11745 2.83064 0 0 0 0 255 0
-1.97804 -1.06325 2.77145 0 0 0 0 255 0
-1.91837 -1.00906 2.71226 0 0 0 0 255 0
-1.85871 -0.954861 2.65308 0 0 0 0 255 0
-1.79905 -0.900665 2.59389 0 0 0 0 255 0
-1.73938 -0.846469 2.5347 0 0 0 0 255 0
-1.67972 -0.792272 2.47552 0 0 0 0 255 0
-1.62006 -0.738076 2.41633 0 0 0 0 255 0
-1.56039 -0.68388 2.35714 0 0 0 0 255 0
-1.50073 -0.629684 2.29796 0 0 0 0 255 0
-1.44106 -0.575487 2.23877 0 0 0 0 255 0
-1.3814 -0.521291 2.17958 0 0 0 0 255 0
-1.32174 -0.467095 2.1204 0 0 0 0 255 0
-1.26207 -0.412898 2.06121 0 0 0 0 255 0
-1.20241 -0.358702 2.00202 0 0 0 0 255 0
-1.14275 -0.304506 1.94284 0 0 0 0 255 0
-1.08308 -0.25031 1.88365 0 0 0 0 255 0
-1.02342 -0.196113 1.82446 0 0 0 0 255 0
-0.963758 -0.141917 1.76528 0 0 0 0 255 0
-0.904094 -0.0877208 1.70609 0 0 0 0 255 0
-0.844431 -0.0335245 1.64691 0 0 0 0 255 0
-0.784768 0.0206718 1.58772 0 0 0 0 255 0
-0.725104 0.074868 1.52853 0 0 0 0 255 0
-0.665441 0.129064 1.46935 0 0 0 0 255 0
-0.605778 0.183261 1.41016 0 0 0 0 255 0
-0.546114 0.237457 1.35097 0 0 0 0 255 0
-0.486451 0.291653 1.29179 0 0 0 0 255 0
-0.426787 0.345849 1.2326 0 0 0 0 255 0
-0.367124 0.400046 1.17341 0 0 0 0 255 0
-0.307461 0.454242 1.11423 0 0 0 0 255 0
-0.247797 0.508438 1.05504 0 0 0 0 255 0
-0.188134 0.562635 0.995854 0 0 0 0 255 0
-0.128471 0.616831 0.936667 0 0 0 0 255 0
-0.0688072 0.671027 0.87748 0 0 0 0 255 0
-0.00914379 0.725223 0.818294 0 0 0 0 255 0
0.0505196 0.77942 0.759107 0 0 0 0 255 0
0.110183 0.833616 0.699921 0 0 0 0 255 0
0.169846 0.887812 0.640734 0 0 0 0 255 0
0.22951 0.942009 0.581548 0 0 0 0 255 0
0.289173 0.996205 0.522361 0 0 0 0 255 0
0.348837 1.0504 0.463175 0 0 0 0 255 0
0.4085 1.1046 0.403988 0 0 0 0 255 0
0.468163 1.15879 0.344802 0 0 0 0 255 0
0.527827 1.21299 0.285615 0 0 0 0 255 0
0.58749 1.26719 0.226429 0 0 0 0 255 0
0.647153 1.32138 0.167242 0 0 0 0 255 0
0.706817 1.37558 0.108056 0 0 0 0 255 0
0.76648 1.42977 0.0488691 0 0 0 0 255 0
0.826143 1.48397 -0.0103174 0 0 0 0 255 0
0.885807 1.53817 -0.0695038 0 0 0 0 255 0
0.94547 1.59236 -0.12869 0 0 0 0 255 0
1.00513 1.64656 -0.187877 0 0 0 0 255 0
1.0648 1.70076 -0.247063 0 0 0 0 255 0
1.12446 1.75495 -0.30625 0 0 0 0 255 0
1.18412 1.80915 -0.365436 0 0 0 0 255 0
1.24379 1.86334 -0.424623 0 0 0 0 255 0
1.30345 1.91754 -0.483809 0 0 0 0 255 0
1.36311 1.97174 -0.542996 0 0 0 0 255 0
1.42278 2.02593 -0.602182 0 0 0 0 255 0
1.48244 2.08013 -0.661369 0 0 0 0 255 0
1.5421 2.13433 -0.720555 0 0 0 0 255 0
1.60177 2.18852 -0.779742 0 0 0 0 255 0
1.66143 2.24272 -0.838928 0 0 0 0 255 0
1.72109 2.29691 -0.898115 0 0 0 0 255 0
1.78076 2.35111 -0.957301 0 0 0 0 255 0
1.84042 2.40531 -1.01649 0 0 0 0 255 0
1.90008 2.4595 -1.07567 0 0 0 0 255 0
1.95975 2.5137 -1.13486 0 0 0 0 255 0
2.01941 2.5679 -1.19405 0 0 0 0 255 0
2.07907 2.62209 -1.25323 0 0 0 0 255 0
2.13874 2.67629 -1.31242 0 0 0 0 255 0
2.1984 2.73048 -1.37161 0 0 0 0 255 0
2.25806 2.78468 -1.43079 0 0 0 0 255 0
2.31773 2.83888 -1.48998 0 0 0 0 255 0
2.37739 2.89307 -1.54917 0 0 0 0 255 0
2.43705 2.94727 -1.60835 0 0 0 0 255 0
2.49672 3.00147 -1.66754 0 0 0 0 255 0
2.55638 3.05566 -1.72673 0 0 0 0 255 0
2.61604 3.10986 -1.78591 0 0 0 0 255 0
2.67571 3.16405 -1.8451 0 0 0 0 255 0
2.73537 3.21825 -1.90428 0 0 0 0 255 0
2.79503 3.27245 -1.96347 0 0 0 0 255 0
2.8547 3.32664 -2.02266 0 0 0 0 255 0
2.91436 3.38084 -2.08184 0 0 0 0 255 0
2.97402 3.43504 -2.14103 0 0 0 0 255 0
3.03369 3.48923 -2.20022 0 0 0 0 255 0
3.09335 3.54343 -2.2594 0 0 0 0 255 0
3.15301 3.59762 -2.31859 0 0 0 0 255 0
3.21268 3.65182 -2.37778 0 0 0 0 255 0
3.27234 3.70602 -2.43696 0 0 0 0 255 0
3.332 3.76021 -2.49615 0 0 0 0 255 0
3.39167 3.81441 -2.55534 0 0 0 0 255 0
3.45133 3.8686 -2.61452 0 0 0 0 255 0
3.51099 3.9228 -2.67371 0 0 0 0 255 0
3.57066 3.977 -2.7329 0 0 0 0 255 0
3.63032 4.03119 -2.79208 0 0 0 0 255 0
3.68998 4.08539 -2.85127 0 0 0 0 255 0
3.74965 4.13959 -2.91045 0 0 0 0 255 0
3.80931 4.19378 -2.96964 0 0 0 0 255 0
3.86897 4.24798 -3.02883 0 0 0 0 255 0
3.92864 4.30217 -3.08801 0 0 0 0 255 0
3.9883 4.35637 -3.1472 0 0 0 0 255 0
4.04796 4.41057 -3.20639 0 0 0 0 255 0
4.10763 4.46476 -3.26557 0 0 0 0 255 0
4.16729 4.51896 -3.32476 0 0 0 0 255 0
4.22695 4.57316 -3.38395 0 0 0 0 255 0
4.28662 4.62735 -3.44313 0 0 0 0 255 0
4.34628 4.68155 -3.50232 0 0 0 0 255 0
4.40594 4.73575 -3.56151 0 0 0 0 255 0
4.46561 4.78994 -3.62069 0 0 0 0 255 0
4.52527 4.84414 -3.67988 0 0 0 0 255 0
4.58493 4.89834 -3.73907 0 0 0 0 255 0
4.6446 4.95253 -3.79825 0 0 0 0 255 0
4.70426 5.00673 -3.85744 0 0 0 0 255 0
4.76393 5.06092 -3.91663 0 0 0 0 255 0
4.82359 5.11512 -3.97581 0 0 0 0 255 0
4.88325 5.16932 -4.035 0 0 0 0 255 0
4.94292 5.22351 -4.09419 0 0 0 0 255 0
5.00258 5.27771 -4.15337 0 0 0 0 255 0
5.06224 5.33191 -4.21256 0 0 0 0 255 0
5.12191 5.3861 -4.27175 0 0 0 0 255 0
5.18157 5.4403 -4.33093 0 0 0 0 255 0
5.24123 5.4945 -4.39012 0 0 0 0 255 0
0.167008 0.624615 0.593118 0 0 0 255 255 0
0.0553067 -3.5182 10.67 0 0 0 0 0 255
0.0511237 -3.4829 10.5766 0 0 0 0 0 255
0.0469408 -3.44761 10.4831 0 0 0 0 0 255
0.0427578 -3.41231 10.3896 0 0 0 0 0 255
0.0385748 -3.37702 10.2962 0 0 0 0 0 255
0.0343918 -3.34172 10.2027 0 0 0 0 0 255
0.0302089 -3.30642 10.1092 0 0 0 0 0 255
0.0260259 -3.27113 10.0158 0 0 0 0 0 255
0.0218429 -3.23583 9.92228 0 0 0 0 0 255
0.01766 -3.20054 9.82881 0 0 0 0 0 255
0.013477 -3.16524 9.73534 0 0 0 0 0 255
0.00929402 -3.12995 9.64187 0 0 0 0 0 255
0.00511104 -3.09465 9.5484 0 0 0 0 0 255
0.000928072 -3.05935 9.45493 0 0 0 0 0 255
-0.0032549 -3.02406 9.36146 0 0 0 0 0 255
-0.00743787 -2.98876 9.26798 0 0 0 0 0 255
-0.0116208 -2.95347 9.17451 0 0 0 0 0 255
-0.0158038 -2.91817 9.08104 0 0 0 0 0 255
-0.0199868 -2.88288 8.98757 0 0 0 0 0 255
-0.0241698 -2.84758 8.8941 0 0 0 0 0 255
-0.0283527 -2.81228 8.80063 0 0 0 0 0 255
-0.0325357 -2.77699 8.70716 0 0 0 0 0 255
-0.0367186 -2.74169 8.61369 0 0 0 0 0 255
-0.0409016 -2.7064 8.52022 0 0 0 0 0 255
-0.0450845 -2.6711 8.42675 0 0 0 0 0 255
-0.0492675 -2.63581 8.33328 0 0 0 0 0 255
-0.0534504 -2.60051 8.23981 0 0 0 0 0 255
-0.0576334 -2.56522 8.14634 0 0 0 0 0 255
-0.0618163 -2.52992 8.05287 0 0 0 0 0 255
-0.0659993 -2.49462 7.9594 0 0 0 0 0 255
-0.0701822 -2.45933 7.86593 0 0 0 0 0 255
-0.0743652 -2.42403 7.77246 0 0 0 0 0 255
-0.0785481 -2.38874 7.67899 0 0 0 0 0 255
-0.0827311 -2.35344 7.58552 0 0 0 0 0 255
-0.086914 -2.31815 7.49205 0 0 0 0 0 255
-0.091097 -2.28285 7.39858 0 0 0 0 0 255
-0.0952799 -2.24756 7.30511 0 0 0 0 0 255
-0.0994629 -2.21226 7.21164 0 0 0 0 0 255
-0.103646 -2.17696 7.11816 0 0 0 0 0 255
-0.107829 -2.14167 7.02469 0 0 0 0 0 255
-0.112012 -2.10637 6.93122 0 0 0 0 0 255
-0.116195 -2.07108 6.83775 0 0 0 0 0 255
-0.120378 -2.03578 6.74428 0 0 0 0 0 255
-0.124561 -2.00049 6.65081 0 0 0 0 0 255
-0.128744 -1.96519 6.55734 0 0 0 0 0 255
-0.132926 -1.9299 6.46387 0 0 0 0 0 255
-0.137109 -1.8946 6.3704 0 0 0 0 0 255
-0.141292 -1.8593 6.27693 0 0 0 0 0 255
-0.145475 -1.82401 6.18346 0 0 0 0 0 255
-0.149658 -1.78871 6.08999 0 0 0 0 0 255
-0.153841 -1.75342 5.99652 0 0 0 0 0 255
-0.158024 -1.71812 5.90305 0 0 0 0 0 255
-0.162207 -1.68283 5.80958 0 0 0 0 0 255
-0.16639 -1.64753 5.71611 0 0 0 0 0 255
-0.170573 -1.61224 5.62264 0 0 0 0 0 255
-0.174756 -1.57694 5.52917 0 0 0 0 0 255
-0.178939 -1.54164 5.4357 0 0 0 0 0 255
-0.183122 -1.50635 5.34223 0 0 0 0 0 255
-0.187305 -1.47105 5.24876 0 0 0 0 0 255
-0.191488 -1.43576 5.15529 0 0 0 0 0 255
-0.195671 -1.40046 5.06182 0 0 0 0 0 255
-0.199854 -1.36517 4.96835 0 0 0 0 0 255
-0.204037 -1.32987 4.87488 0 0 0 0 0 255
-0.20822 -1.29458 4.78141 0 0 0 0 0 255
-0.212403 -1.25928 4.68794 0 0 0 0 0 255
-0.216586 -1.22398 4.59446 0 0 0 0 0 255
-0.220768 -1.18869 4.50099 0 0 0 0 0 255
-0.224951 -1.15339 4.40752 0 0 0 0 0 255
-0.229134 -1.1181 4.31405 0 0 0 0 0 255
-0.233317 -1.0828 4.22058 0 0 0 0 0 255
-0.2375 -1.04751 4.12711 0 0 0 0 0 255
-0.241683 -1.01221 4.03364 0 0 0 0 0 255
-0.245866 -0.976915 3.94017 0 0 0 0 0 255
-0.250049 -0.94162 3.8467 0 0 0 0 0 255
-0.254232 -0.906324 3.75323 0 0 0 0 0 255
-0.258415 -0.871029 3.65976 0 0 0 0 0 255
-0.262598 -0.835733 3.56629 0 0 0 0 0 255
-0.266781 -0.800438 3.47282 0 0 0 0 0 255
-0.270964 -0.765142 3.37935 0 0 0 0 0 255
-0.275147 -0.729847 3.28588 0 0 0 0 0 255
-0.27933 -0.694551 3.19241 0 0 0 0 0 255
-0.283513 -0.659255 3.09894 0 0 0 0 0 255
-0.287696 -0.62396 3.00547 0 0 0 0 0 255
-0.291879 -0.588664 2.912 0 0 0 0 0 255
-0.296062 -0.553369 2.81853 0 0 0 0 0 255
-0.300245 -0.518073 2.72506 0 0 0 0 0 255
-0.304428 -0.482777 2.63159 0 0 0 0 0 255
-0.308611 -0.447482 2.53812 0 0 0 0 0 255
-0.312793 -0.412186 2.44465 0 0 0 0 0 255
-0.316976 -0.376891 2.35117 0 0 0 0 0 255
-0.321159 -0.341595 2.2577 0 0 0 0 0 255
-0.325342 -0.306299 2.16423 0 0 0 0 0 255
-0.329525 -0.271004 2.07076 0 0 0 0 0 255
-0.333708 -0.235708 1.97729 0 0 0 0 0 255
-0.337891 -0.200413 1.88382 0 0 0 0 0 255
-0.342074 -0.165117 1.79035 0 0 0 0 0 255
-0.346257 -0.129821 1.69688 0 0 0 0 0 255
-0.35044 -0.0945259 1.60341 0 0 0 0 0 255
-0.354623 -0.0592303 1.50994 0 0 0 0 0 255
-0.358806 -0.0239347 1.41647 0 0 0 0 0 255
-0.362989 0.0113609 1.323 0 0 0 0 0 255
-0.367172 0.0466564 1.22953 0 0 0 0 0 255
-0.371355 0.081952 1.13606 0 0 0 0 0 255
-0.375538 0.117248 1.04259 0 0 0 0 0 255
-0.379721 0.152543 0.949118 0 0 0 0 0 255
-0.383904 0.187839 0.855648 0 0 0 0 0 255
-0.388087 0.223134 0.762177 0 0 0 0 0 255
-0.39227 0.25843 0.668707 0 0 0 0 0 255
-0.396453 0.293726 0.575236 0 0 0 0 0 255
-0.400636 0.329021 0.481766 0 0 0 0 0 255
-0.404818 0.364317 0.388295 0 0 0 0 0 255
-0.409001 0.399612 0.294825 0 0 0 0 0 255
-0.413184 0.434908 0.201354 0 0 0 0 0 255
-0.417367 0.470204 0.107884 0 0 0 0 0 255
-0.42155 0.505499 0.0144134 0 0 0 0 0 255
-0.425733 0.540795 -0.0790571 0 0 0 0 0 255
-0.429916 0.57609 -0.172528 0 0 0 0 0 255
-0.434099 0.611386 -0.265998 0 0 0 0 0 255
-0.438282 0.646681 -0.359469 0 0 0 0 0 255
-0.442465 0.681977 -0.452939 0 0 0 0 0 255
-0.446648 0.717273 -0.546409 0 0 0 0 0 255
-0.450831 0.752568 -0.63988 0 0 0 0 0 255
-0.455014 0.787864 -0.73335 0 0 0 0 0 255
-0.459197 0.823159 -0.826821 0 0 0 0 0 255
-0.46338 0.858455 -0.920291 0 0 0 0 0 255
-0.467563 0.89375 -1.01376 0 0 0 0 0 255
-0.471746 0.929046 -1.10723 0 0 0 0 0 255
-0.475929 0.964342 -1.2007 0 0 0 0 0 255
-0.480112 0.999637 -1.29417 0 0 0 0 0 255
-0.484295 1.03493 -1.38764 0 0 0 0 0 255
-0.488478 1.07023 -1.48111 0 0 0 0 0 255
-0.492661 1.10552 -1.57458 0 0 0 0 0 255
-0.496843 1.14082 -1.66805 0 0 0 0 0 255
-0.501026 1.17611 -1.76152 0 0 0 0 0 255
-0.505209 1.21141 -1.85499 0 0 0 0 0 255
-0.509392 1.24671 -1.94846 0 0 0 0 0 255
-0.513575 1.282 -2.04194 0 0 0 0 0 255
-0.517758 1.3173 -2.13541 0 0 0 0 0 255
-0.521941 1.35259 -2.22888 0 0 0 0 0 255
-0.526124 1.38789 -2.32235 0 0 0 0 0 255
-0.530307 1.42318 -2.41582 0 0 0 0 0 255
-0.53449 1.45848 -2.50929 0 0 0 0 0 255
-0.538673 1.49377 -2.60276 0 0 0 0 0 255
-0.542856 1.52907 -2.69623 0 0 0 0 0 255
-0.547039 1.56437 -2.7897 0 0 0 0 0 255
-0.551222 1.59966 -2.88317 0 0 0 0 0 255
-0.555405 1.63496 -2.97664 0 0 0 0 0 255
-0.559588 1.67025 -3.07011 0 0 0 0 0 255
-0.563771 1.70555 -3.16358 0 0 0 0 0 255
-0.567954 1.74084 -3.25705 0 0 0 0 0 255
-0.572137 1.77614 -3.35052 0 0 0 0 0 255
-0.57632 1.81143 -3.44399 0 0 0 0 0 255
-0.580503 1.84673 -3.53746 0 0 0 0 0 255
-0.584685 1.88203 -3.63093 0 0 0 0 0 255
-0.588868 1.91732 -3.7244 0 0 0 0 0 255
-0.593051 1.95262 -3.81787 0 0 0 0 0 255
-0.597234 1.98791 -3.91134 0 0 0 0 0 255
-0.601417 2.02321 -4.00481 0 0 0 0 0 255
-0.6056 2.0585 -4.09828 0 0 0 0 0 255
-0.609783 2.0938 -4.19175 0 0 0 0 0 255
-0.613966 2.12909 -4.28522 0 0 0 0 0 255
-0.618149 2.16439 -4.37869 0 0 0 0 0 255
-0.622332 2.19969 -4.47217 0 0 0 0 0 255
-0.626515 2.23498 -4.56564 0 0 0 0 0 255
-0.630698 2.27028 -4.65911 0 0 0 0 0 255
-0.634881 2.30557 -4.75258 0 0 0 0 0 255
-0.639064 2.34087 -4.84605 0 0 0 0 0 255
-0.643247 2.37616 -4.93952 0 0 0 0 0 255
-0.64743 2.41146 -5.03299 0 0 0 0 0 255
-0.651613 2.44675 -5.12646 0 0 0 0 0 255
-0.655796 2.48205 -5.21993 0 0 0 0 0 255
-0.659979 2.51735 -5.3134 0 0 0 0 0 255
-0.664162 2.55264 -5.40687 0 0 0 0 0 255
-0.668345 2.58794 -5.50034 0 0 0 0 0 255
-0.672527 2.62323 -5.59381 0 0 0 0 0 255
-0.67671 2.65853 -5.68728 0 0 0 0 0 255
-0.680893 2.69382 -5.78075 0 0 0 0 0 255
-0.685076 2.72912 -5.87422 0 0 0 0 0 255
-0.689259 2.76441 -5.96769 0 0 0 0 0 255
-0.693442 2.79971 -6.06116 0 0 0 0 0 255
-0.697625 2.83501 -6.15463 0 0 0 0 0 255
-0.701808 2.8703 -6.2481 0 0 0 0 0 255
-0.705991 2.9056 -6.34157 0 0 0 0 0 255
-0.710174 2.94089 -6.43504 0 0 0 0 0 255
-0.714357 2.97619 -6.52851 0 0 0 0 0 255
-0.71854 3.01148 -6.62199 0 0 0 0 0 255
-0.722723 3.04678 -6.71546 0 0 0 0 0 255
-0.726906 3.08208 -6.80893 0 0 0 0 0 255
-0.731089 3.11737 -6.9024 0 0 0 0 0 255
-0.735272 3.15267 -6.99587 0 0 0 0 0 255
-0.739455 3.18796 -7.08934 0 0 0 0 0 255
-0.743638 3.22326 -7.18281 0 0 0 0 0 255
-0.747821 3.25855 -7.27628 0 0 0 0 0 255
-0.752004 3.29385 -7.36975 0 0 0 0 0 255
-0.756187 3.32915 -7.46322 0 0 0 0 0 255
-0.76037 3.36444 -7.55669 0 0 0 0 0 255
-0.764553 3.39974 -7.65016 0 0 0 0 0 255
-0.768736 3.43503 -7.74363 0 0 0 0 0 255
-0.772919 3.47033 -7.83711 0 0 0 0 0 255
-0.777102 3.50562 -7.93058 0 0 0 0 0 255
4.10958 -3.90021 9.26945 0 0 0 0 0 255
4.07079 -3.86016 9.18643 0 0 0 0 0 255
4.032 -3.82011 9.10342 0 0 0 0 0 255
3.99321 -3.78005 9.02041 0 0 0 0 0 255
3.95442 -3.74 8.9374 0 0 0 0 0 255
3.91563 -3.69994 8.85438 0 0 0 0 0 255
3.87684 -3.65989 8.77137 0 0 0 0 0 255
3.83805 -3.61983 8.68836 0 0 0 0 0 255
3.79926 -3.57978 8.60535 0 0 0 0 0 255
3.76047 -3.53973 8.52233 0 0 0 0 0 255
3.72168 -3.49967 8.43932 0 0 0 0 0 255
3.68289 -3.45962 8.35631 0 0 0 0 0 255
3.6441 -3.41956 8.2733 0 0 0 0 0 255
3.60531 -3.37951 8.19028 0 0 0 0 0 255
3.56651 -3.33945 8.10727 0 0 0 0 0 255
3.52772 -3.2994 8.02426 0 0 0 0 0 255
3.48893 -3.25935 7.94125 0 0 0 0 0 255
3.45014 -3.21929 7.85823 0 0 0 0 0 255
3.41135 -3.17924 7.77522 0 0 0 0 0 255
3.37256 -3.13918 7.69221 0 0 0 0 0 255
3.33377 -3.09913 7.6092 0 0 0 0 0 255
3.29498 -3.05908 7.52619 0 0 0 0 0 255
3.25619 -3.01902 7.44317 0 0 0 0 0 255
3.2174 -2.97897 7.36016 0 0 0 0 0 255
3.17861 -2.93891 7.27715 0 0 0 0 0 255
3.13982 -2.89886 7.19414 0 0 0 0 0 255
3.10103 -2.85881 7.11113 0 0 0 0 0 255
3.06224 -2.81875 7.02811 0 0 0 0 0 255
3.02345 -2.7787 6.9451 0 0 0 0 0 255
2.98466 -2.73864 6.86209 0 0 0 0 0 255
2.94587 -2.69859 6.77908 0 0 0 0 0 255
2.90708 -2.65853 6.69607 0 0 0 0 0 255
2.86829 -2.61848 6.61305 0 0 0 0 0 255
2.8295 -2.57843 6.53004 0 0 0 0 0 255
2.79071 -2.53837 6.44703 0 0 0 0 0 255
2.75192 -2.49832 6.36402 0 0 0 0 0 255
2.71313 -2.45826 6.28101 0 0 0 0 0 255
2.67434 -2.41821 6.19799 0 0 0 0 0 255
2.63555 -2.37816 6.11498 0 0 0 0 0 255
2.59676 -2.3381 6.03197 0 0 0 0 0 255
2.55797 -2.29805 5.94896 0 0 0 0 0 255
2.51918 -2.25799 5.86595 0 0 0 0 0 255
2.48039 -2.21794 5.78293 0 0 0 0 0 255
2.4416 -2.17789 5.69992 0 0 0 0 0 255
2.40281 -2.13783 5.61691 0 0 0 0 0 255
2.36402 -2.09778 5.5339 0 0 0 0 0 255
2.32523 -2.05772 5.45089 0 0 0 0 0 255
2.28644 -2.01767 5.36787 0 0 0 0 0 255
2.24765 -1.97762 5.28486 0 0 0 0 0 255
2.20886 -1.93756 5.20185 0 0 0 0 0 255
2.17007 -1.89751 5.11884 0 0 0 0 0 255
2.13128 -1.85745 5.03583 0 0 0 0 0 255
2.09249 -1.8174 4.95281 0 0 0 0 0 255
2.0537 -1.77735 4.8698 0 0 0 0 0 255
2.01491 -1.73729 4.78679 0 0 0 0 0 255
1.97612 -1.69724 4.70378 0 0 0 0 0 255
1.93733 -1.65718 4.62077 0 0 0 0 0 255
1.89854 -1.61713 4.53775 0 0 0 0 0 255
1.85975 -1.57708 4.45474 0 0 0 0 0 255
1.82096 -1.53702 4.37173 0 0 0 0 0 255
1.78217 -1.49697 4.28872 0 0 0 0 0 255
1.74338 -1.45691 4.20571 0 0 0 0 0 255
1.70459 -1.41686 4.12269 0 0 0 0 0 255
1.6658 -1.37681 4.03968 0 0 0 0 0 255
1.62701 -1.33675 3.95667 0 0 0 0 0 255
1.58822 -1.2967 3.87366 0 0 0 0 0 255
1.54943 -1.25664 3.79065 0 0 0 0 0 255
1.51064 -1.21659 3.70763 0 0 0 0 0 255
1.47185 -1.17654 3.62462 0 0 0 0 0 255
1.43306 -1.13648 3.54161 0 0 0 0 0 255
1.39427 -1.09643 3.4586 0 0 0 0 0 255
1.35548 -1.05637 3.37559 0 0 0 0 0 255
1.31669 -1.01632 3.29258 0 0 0 0 0 255
1.2779 -0.976265 3.20956 0 0 0 0 0 255
1.23911 -0.936211 3.12655 0 0 0 0 0 255
1.20032 -0.896157 3.04354 0 0 0 0 0 255
1.16153 -0.856103 2.96053 0 0 0 0 0 255
1.12274 -0.816049 2.87752 0 0 0 0 0 255
1.08395 -0.775995 2.7945 0 0 0 0 0 255
1.04516 -0.735941 2.71149 0 0 0 0 0 255
1.00637 -0.695887 2.62848 0 0 0 0 0 255
0.967582 -0.655833 2.54547 0 0 0 0 0 255
0.928792 -0.615779 2.46245 0 0 0 0 0 255
0.890002 -0.575725 2.37944 0 0 0 0 0 255
0.851212 -0.535671 2.29643 0 0 0 0 0 255
0.812422 -0.495617 2.21342 0 0 0 0 0 255
0.773632 -0.455563 2.13041 0 0 0 0 0 255
0.734842 -0.415509 2.04739 0 0 0 0 0 255
0.696051 -0.375454 1.96438 0 0 0 0 0 255
0.657261 -0.3354 1.88137 0 0 0 0 0 255
0.618471 -0.295346 1.79836 0 0 0 0 0 255
0.579681 -0.255292 1.71535 0 0 0 0 0 255
0.540891 -0.215238 1.63233 0 0 0 0 0 255
0.502101 -0.175184 1.54932 0 0 0 0 0 255
0.463311 -0.13513 1.46631 0 0 0 0 0 255
0.424521 -0.0950759 1.3833 0 0 0 0 0 255
0.385731 -0.0550218 1.30029 0 0 0 0 0 255
0.346941 -0.0149677 1.21727 0 0 0 0 0 255
0.308151 0.0250863 1.13426 0 0 0 0 0 255
0.269361 0.0651404 1.05125 0 0 0 0 0 255
0.230571 0.105194 0.968238 0 0 0 0 0 255
0.191781 0.145249 0.885226 0 0 0 0 0 255
0.15299 0.185303 0.802213 0 0 0 0 0 255
0.1142 0.225357 0.719201 0 0 0 0 0 255
0.0754104 0.265411 0.636189 0 0 0 0 0 255
0.0366203 0.305465 0.553177 0 0 0 0 0 255
-0.00216977 0.345519 0.470165 0 0 0 0 0 255
-0.0409598 0.385573 0.387153 0 0 0 0 0 255
-0.0797499 0.425627 0.304141 0 0 0 0 0 255
-0.11854 0.465681 0.221129 0 0 0 0 0 255
-0.15733 0.505735 0.138117 0 0 0 0 0 255
-0.19612 0.545789 0.0551048 0 0 0 0 0 255
-0.23491 0.585843 -0.0279072 0 0 0 0 0 255
-0.2737 0.625897 -0.110919 0 0 0 0 0 255
-0.31249 0.665952 -0.193931 0 0 0 0 0 255
-0.35128 0.706006 -0.276943 0 0 0 0 0 255
-0.39007 0.74606 -0.359956 0 0 0 0 0 255
-0.428861 0.786114 -0.442968 0 0 0 0 0 255
-0.467651 0.826168 -0.52598 0 0 0 0 0 255
-0.506441 0.866222 -0.608992 0 0 0 0 0 255
-0.545231 0.906276 -0.692004 0 0 0 0 0 255
-0.584021 0.94633 -0.775016 0 0 0 0 0 255
-0.622811 0.986384 -0.858028 0 0 0 0 0 255
-0.661601 1.02644 -0.94104 0 0 0 0 0 255
-0.700391 1.06649 -1.02405 0 0 0 0 0 255
-0.739181 1.10655 -1.10706 0 0 0 0 0 255
-0.777971 1.1466 -1.19008 0 0 0 0 0 255
-0.816761 1.18665 -1.27309 0 0 0 0 0 255
-0.855551 1.22671 -1.3561 0 0 0 0 0 255
-0.894341 1.26676 -1.43911 0 0 0 0 0 255
-0.933131 1.30682 -1.52212 0 0 0 0 0 255
-0.971921 1.34687 -1.60514 0 0 0 0 0 255
-1.01071 1.38692 -1.68815 0 0 0 0 0 255
-1.0495 1.42698 -1.77116 0 0 0 0 0 255
-1.08829 1.46703 -1.85417 0 0 0 0 0 255
-1.12708 1.50709 -1.93718 0 0 0 0 0 255
-1.16587 1.54714 -2.0202 0 0 0 0 0 255
-1.20466 1.58719 -2.10321 0 0 0 0 0 255
-1.24345 1.62725 -2.18622 0 0 0 0 0 255
-1.28224 1.6673 -2.26923 0 0 0 0 0 255
-1.32103 1.70736 -2.35224 0 0 0 0 0 255
-1.35982 1.74741 -2.43526 0 0 0 0 0 255
-1.39861 1.78746 -2.51827 0 0 0 0 0 255
-1.4374 1.82752 -2.60128 0 0 0 0 0 255
-1.47619 1.86757 -2.68429 0 0 0 0 0 255
-1.51498 1.90763 -2.7673 0 0 0 0 0 255
-1.55377 1.94768 -2.85032 0 0 0 0 0 255
-1.59256 1.98774 -2.93333 0 0 0 0 0 255
-1.63135 2.02779 -3.01634 0 0 0 0 0 255
-1.67014 2.06784 -3.09935 0 0 0 0 0 255
-1.70893 2.1079 -3.18236 0 0 0 0 0 255
-1.74772 2.14795 -3.26538 0 0 0 0 0 255
-1.78651 2.18801 -3.34839 0 0 0 0 0 255
-1.8253 2.22806 -3.4314 0 0 0 0 0 255
-1.86409 2.26811 -3.51441 0 0 0 0 0 255
-1.90288 2.30817 -3.59742 0 0 0 0 0 255
-1.94167 2.34822 -3.68044 0 0 0 0 0 255
-1.98046 2.38828 -3.76345 0 0 0 0 0 255
-2.01925 2.42833 -3.84646 0 0 0 0 0 255
-2.05804 2.46838 -3.92947 0 0 0 0 0 255
-2.09683 2.50844 -4.01248 0 0 0 0 0 255
-2.13562 2.54849 -4.0955 0 0 0 0 0 255
-2.17441 2.58855 -4.17851 0 0 0 0 0 255
-2.2132 2.6286 -4.26152 0 0 0 0 0 255
-2.25199 2.66865 -4.34453 0 0 0 0 0 255
-2.29078 2.70871 -4.42754 0 0 0 0 0 255
-2.32957 2.74876 -4.51056 0 0 0 0 0 255
-2.36836 2.78882 -4.59357 0 0 0 0 0 255
-2.40715 2.82887 -4.67658 0 0 0 0 0 255
-2.44594 2.86892 -4.75959 0 0 0 0 0 255
-2.48473 2.90898 -4.8426 0 0 0 0 0 255
-2.52352 2.94903 -4.92562 0 0 0 0 0 255
-2.56231 2.98909 -5.00863 0 0 0 0 0 255
-2.6011 3.02914 -5.09164 0 0 0 0 0 255
-2.63989 3.06919 -5.17465 0 0 0 0 0 255
-2.67868 3.10925 -5.25766 0 0 0 0 0 255
-2.71747 3.1493 -5.34068 0 0 0 0 0 255
-2.75626 3.18936 -5.42369 0 0 0 0 0 255
-2.79505 3.22941 -5.5067 0 0 0 0 0 255
-2.83384 3.26946 -5.58971 0 0 0 0 0 255
-2.87263 3.30952 -5.67272 0 0 0 0 0 255
-2.91142 3.34957 -5.75574 0 0 0 0 0 255
-2.95021 3.38963 -5.83875 0 0 0 0 0 255
-2.989 3.42968 -5.92176 0 0 0 0 0 255
-3.02779 3.46974 -6.00477 0 0 0 0 0 255
-3.06658 3.50979 -6.08778 0 0 0 0 0 255
-3.10537 3.54984 -6.1708 0 0 0 0 0 255
-3.14416 3.5899 -6.25381 0 0 0 0 0 255
-3.18295 3.62995 -6.33682 0 0 0 0 0 255
-3.22174 3.67001 -6.41983 0 0 0 0 0 255
-3.26053 3.71006 -6.50285 0 0 0 0 0 255
-3.29932 3.75011 -6.58586 0 0 0 0 0 255
-3.33811 3.79017 -6.66887 0 0 0 0 0 255
-3.37691 3.83022 -6.75188 0 0 0 0 0 255
-3.4157 3.87028 -6.8349 0 0 0 0 0 255
-3.45449 3.91033 -6.91791 0 0 0 0 0 255
-3.49328 3.95039 -7.00092 0 0 0 0 0 255
-3.53207 3.99044 -7.08393 0 0 0 0 0 255
-3.57086 4.03049 -7.16695 0 0 0 0 0 255
-3.60965 4.07055 -7.24996 0 0 0 0 0 255
-4.39898 -3.12837 10.3143 0 0 0 0 0 255
-4.36289 -3.09751 10.2263 0 0 0 0 0 255
-4.32679 -3.06666 10.1383 0 0 0 0 0 255
-4.2907 -3.0358 10.0503 0 0 0 0 0 255
-4.25461 -3.00495 9.9623 0 0 0 0 0 255
-4.21851 -2.97409 9.87429 0 0 0 0 0 255
-4.18242 -2.94324 9.78628 0 0 0 0 0 255
-4.14633 -2.91238 9.69828 0 0 0 0 0 255
-4.11024 -2.88153 9.61027 0 0 0 0 0 255
-4.07414 -2.85067 9.52226 0 0 0 0 0 255
-4.03805 -2.81982 9.43425 0 0 0 0 0 255
-4.00196 -2.78896 9.34625 0 0 0 0 0 255
-3.96586 -2.75811 9.25824 0 0 0 0 0 255
-3.92977 -2.72725 9.17023 0 0 0 0 0 255
-3.89368 -2.6964 9.08222 0 0 0 0 0 255
-3.85758 -2.66554 8.99422 0 0 0 0 0 255
-3.82149 -2.63469 8.90621 0 0 0 0 0 255
-3.7854 -2.60383 8.8182 0 0 0 0 0 255
-3.74931 -2.57298 8.73019 0 0 0 0 0 255
-3.71321 -2.54212 8.64219 0 0 0 0 0 255
-3.67712 -2.51127 8.55418 0 0 0 0 0 255
-3.64103 -2.48042 8.46617 0 0 0 0 0 255
-3.60493 -2.44956 8.37816 0 0 0 0 0 255
-3.56884 -2.41871 8.29016 0 0 0 0 0 255
-3.53275 -2.38785 8.20215 0 0 0 0 0 255
-3.49665 -2.357 8.11414 0 0 0 0 0 255
-3.46056 -2.32614 8.02613 0 0 0 0 0 255
-3.42447 -2.29529 7.93813 0 0 0 0 0 255
-3.38838 -2.26443 7.85012 0 0 0 0 0 255
-3.35228 -2.23358 7.76211 0 0 0 0 0 255
-3.31619 -2.20272 7.67411 0 0 0 0 0 255
-3.2801 -2.17187 7.5861 0 0 0 0 0 255
-3.244 -2.14101 7.49809 0 0 0 0 0 255
-3.20791 -2.11016 7.41008 0 0 0 0 0 255
-3.17182 -2.0793 7.32208 0 0 0 0 0 255
-3.13573 -2.04845 7.23407 0 0 0 0 0 255
-3.09963 -2.01759 7.14606 0 0 0 0 0 255
-3.06354 -1.98674 7.05806 0 0 0 0 0 255
-3.02745 -1.95588 6.97005 0 0 0 0 0 255
-2.99135 -1.92503 6.88204 0 0 0 0 0 255
-2.95526 -1.89418 6.79403 0 0 0 0 0 255
-2.91917 -1.86332 6.70603 0 0 0 0 0 255
-2.88308 -1.83247 6.61802 0 0 0 0 0 255
-2.84698 -1.80161 6.53001 0 0 0 0 0 255
-2.81089 -1.77076 6.442 0 0 0 0 0 255
-2.7748 -1.7399 6.354 0 0 0 0 0 255
-2.7387 -1.70905 6.26599 0 0 0 0 0 255
-2.70261 -1.67819 6.17798 0 0 0 0 0 255
-2.66652 -1.64734 6.08998 0 0 0 0 0 255
-2.63043 -1.61648 6.00197 0 0 0 0 0 255
-2.59433 -1.58563 5.91396 0 0 0 0 0 255
-2.55824 -1.55477 5.82595 0 0 0 0 0 255
-2.52215 -1.52392 5.73795 0 0 0 0 0 255
-2.48605 -1.49306 5.64994 0 0 0 0 0 255
-2.44996 -1.46221 5.56193 0 0 0 0 0 255
-2.41387 -1.43135 5.47393 0 0 0 0 0 255
-2.37778 -1.4005 5.38592 0 0 0 0 0 255
-2.34168 -1.36964 5.29791 0 0 0 0 0 255
-2.30559 -1.33879 5.2099 0 0 0 0 0 255
-2.2695 -1.30793 5.1219 0 0 0 0 0 255
-2.2334 -1.27708 5.03389 0 0 0 0 0 255
-2.19731 -1.24623 4.94588 0 0 0 0 0 255
-2.16122 -1.21537 4.85787 0 0 0 0 0 255
-2.12513 -1.18452 4.76987 0 0 0 0 0 255
-2.08903 -1.15366 4.68186 0 0 0 0 0 255
-2.05294 -1.12281 4.59385 0 0 0 0 0 255
-2.01685 -1.09195 4.50585 0 0 0 0 0 255
-1.98075 -1.0611 4.41784 0 0 0 0 0 255
-1.94466 -1.03024 4.32983 0 0 0 0 0 255
-1.90857 -0.999387 4.24182 0 0 0 0 0 255
-1.87248 -0.968533 4.15382 0 0 0 0 0 255
-1.83638 -0.937678 4.06581 0 0 0 0 0 255
-1.80029 -0.906823 3.9778 0 0 0 0 0 255
-1.7642 -0.875968 3.8898 0 0 0 0 0 255
-1.7281 -0.845114 3.80179 0 0 0 0 0 255
-1.69201 -0.814259 3.71378 0 0 0 0 0 255
-1.65592 -0.783404 3.62577 0 0 0 0 0 255
-1.61983 -0.752549 3.53777 0 0 0 0 0 255
-1.58373 -0.721695 3.44976 0 0 0 0 0 255
-1.54764 -0.69084 3.36175 0 0 0 0 0 255
-1.51155 -0.659985 3.27374 0 0 0 0 0 255
-1.47545 -0.62913 3.18574 0 0 0 0 0 255
-1.43936 -0.598276 3.09773 0 0 0 0 0 255
-1.40327 -0.567421 3.00972 0 0 0 0 0 255
-1.36718 -0.536566 2.92172 0 0 0 0 0 255
-1.33108 -0.505711 2.83371 0 0 0 0 0 255
-1.29499 -0.474856 2.7457 0 0 0 0 0 255
-1.2589 -0.444002 2.65769 0 0 0 0 0 255
-1.2228 -0.413147 2.56969 0 0 0 0 0 255
-1.18671 -0.382292 2.48168 0 0 0 0 0 255
-1.15062 -0.351437 2.39367 0 0 0 0 0 255
-1.11452 -0.320582 2.30566 0 0 0 0 0 255
-1.07843 -0.289728 2.21766 0 0 0 0 0 255
-1.04234 -0.258873 2.12965 0 0 0 0 0 255
-1.00625 -0.228018 2.04164 0 0 0 0 0 255
-0.970153 -0.197163 1.95363 0 0 0 0 0 255
-0.93406 -0.166309 1.86563 0 0 0 0 0 255
-0.897967 -0.135454 1.77762 0 0 0 0 0 255
-0.861874 -0.104599 1.68961 0 0 0 0 0 255
-0.825782 -0.0737442 1.60161 0 0 0 0 0 255
-0.789689 -0.0428894 1.5136 0 0 0 0 0 255
-0.753596 -0.0120347 1.42559 0 0 0 0 0 255
-0.717503 0.0188201 1.33758 0 0 0 0 0 255
-0.68141 0.0496749 1.24958 0 0 0 0 0 255
-0.645317 0.0805297 1.16157 0 0 0 0 0 255
-0.609224 0.111384 1.07356 0 0 0 0 0 255
-0.573131 0.142239 0.985555 0 0 0 0 0 255
-0.537038 0.173094 0.897547 0 0 0 0 0 255
-0.500945 0.203949 0.80954 0 0 0 0 0 255
-0.464853 0.234804 0.721533 0 0 0 0 0 255
-0.42876 0.265658 0.633525 0 0 0 0 0 255
-0.392667 0.296513 0.545518 0 0 0 0 0 255
-0.356574 0.327368 0.457511 0 0 0 0 0 255
-0.320481 0.358223 0.369503 0 0 0 0 0 255
-0.284388 0.389078 0.281496 0 0 0 0 0 255
-0.248295 0.419932 0.193489 0 0 0 0 0 255
-0.212202 0.450787 0.105481 0 0 0 0 0 255
-0.176109 0.481642 0.0174739 0 0 0 0 0 255
-0.140016 0.512497 -0.0705334 0 0 0 0 0 255
-0.103923 0.543351 -0.158541 0 0 0 0 0 255
-0.0678305 0.574206 -0.246548 0 0 0 0 0 255
-0.0317376 0.605061 -0.334555 0 0 0 0 0 255
0.00435524 0.635916 -0.422562 0 0 0 0 0 255
0.0404481 0.66677 -0.51057 0 0 0 0 0 255
0.076541 0.697625 -0.598577 0 0 0 0 0 255
0.112634 0.72848 -0.686584 0 0 0 0 0 255
0.148727 0.759335 -0.774591 0 0 0 0 0 255
0.18482 0.790189 -0.862599 0 0 0 0 0 255
0.220912 0.821044 -0.950606 0 0 0 0 0 255
0.257005 0.851899 -1.03861 0 0 0 0 0 255
0.293098 0.882754 -1.12662 0 0 0 0 0 255
0.329191 0.913608 -1.21463 0 0 0 0 0 255
0.365284 0.944463 -1.30263 0 0 0 0 0 255
0.401377 0.975318 -1.39064 0 0 0 0 0 255
0.43747 1.00617 -1.47865 0 0 0 0 0 255
0.473563 1.03703 -1.56666 0 0 0 0 0 255
0.509655 1.06788 -1.65466 0 0 0 0 0 255
0.545748 1.09874 -1.74267 0 0 0 0 0 255
0.581841 1.12959 -1.83068 0 0 0 0 0 255
0.617934 1.16045 -1.91869 0 0 0 0 0 255
0.654027 1.1913 -2.00669 0 0 0 0 0 255
0.69012 1.22216 -2.0947 0 0 0 0 0 255
0.726213 1.25301 -2.18271 0 0 0 0 0 255
0.762306 1.28387 -2.27071 0 0 0 0 0 255
0.798398 1.31472 -2.35872 0 0 0 0 0 255
0.834491 1.34558 -2.44673 0 0 0 0 0 255
0.870584 1.37643 -2.53474 0 0 0 0 0 255
0.906677 1.40728 -2.62274 0 0 0 0 0 255
0.94277 1.43814 -2.71075 0 0 0 0 0 255
0.978863 1.46899 -2.79876 0 0 0 0 0 255
1.01496 1.49985 -2.88676 0 0 0 0 0 255
1.05105 1.5307 -2.97477 0 0 0 0 0 255
1.08714 1.56156 -3.06278 0 0 0 0 0 255
1.12323 1.59241 -3.15079 0 0 0 0 0 255
1.15933 1.62327 -3.23879 0 0 0 0 0 255
1.19542 1.65412 -3.3268 0 0 0 0 0 255
1.23151 1.68498 -3.41481 0 0 0 0 0 255
1.26761 1.71583 -3.50282 0 0 0 0 0 255
1.3037 1.74669 -3.59082 0 0 0 0 0 255
1.33979 1.77754 -3.67883 0 0 0 0 0 255
1.37588 1.8084 -3.76684 0 0 0 0 0 255
1.41198 1.83925 -3.85484 0 0 0 0 0 255
1.44807 1.87011 -3.94285 0 0 0 0 0 255
1.48416 1.90096 -4.03086 0 0 0 0 0 255
1.52026 1.93182 -4.11887 0 0 0 0 0 255
1.55635 1.96267 -4.20687 0 0 0 0 0 255
1.59244 1.99352 -4.29488 0 0 0 0 0 255
1.62853 2.02438 -4.38289 0 0 0 0 0 255
1.66463 2.05523 -4.47089 0 0 0 0 0 255
1.70072 2.08609 -4.5589 0 0 0 0 0 255
1.73681 2.11694 -4.64691 0 0 0 0 0 255
1.77291 2.1478 -4.73492 0 0 0 0 0 255
1.809 2.17865 -4.82292 0 0 0 0 0 255
1.84509 2.20951 -4.91093 0 0 0 0 0 255
1.88118 2.24036 -4.99894 0 0 0 0 0 255
1.91728 2.27122 -5.08695 0 0 0 0 0 255
1.95337 2.30207 -5.17495 0 0 0 0 0 255
1.98946 2.33293 -5.26296 0 0 0 0 0 255
2.02556 2.36378 -5.35097 0 0 0 0 0 255
2.06165 2.39464 -5.43897 0 0 0 0 0 255
2.09774 2.42549 -5.52698 0 0 0 0 0 255
2.13383 2.45635 -5.61499 0 0 0 0 0 255
2.16993 2.4872 -5.703 0 0 0 0 0 255
2.20602 2.51806 -5.791 0 0 0 0 0 255
2.24211 2.54891 -5.87901 0 0 0 0 0 255
2.27821 2.57977 -5.96702 0 0 0 0 0 255
2.3143 2.61062 -6.05503 0 0 0 0 0 255
2.35039 2.64148 -6.14303 0 0 0 0 0 255
2.38649 2.67233 -6.23104 0 0 0 0 0 255
2.42258 2.70319 -6.31905 0 0 0 0 0 255
2.45867 2.73404 -6.40706 0 0 0 0 0 255
2.49477 2.7649 -6.49507 0 0 0 0 0 255
2.53086 2.79575 -6.58307 0 0 0 0 0 255
2.56695 2.8266 -6.67108 0 0 0 0 0 255
2.60304 2.85746 -6.75909 0 0 0 0 0 255
2.63914 2.88831 -6.8471 0 0 0 0 0 255
2.67523 2.91917 -6.9351 0 0 0 0 0 255
2.71132 2.95002 -7.02311 0 0 0 0 0 255
2.74742 2.98088 -7.11112 0 0 0 0 0 255
2.78351 3.01173 -7.19913 0 0 0 0 0 255
-0.272264 0.490351 0.0842305 0 0 0 255 255 0
-4.05553 0.743408 10.5341 0 0 0 255 255 255
-4.01688 0.736146 10.4422 0 0 0 255 255 255
-3.97824 0.728883 10.3502 0 0 0 255 255 255
-3.9396 0.72162 10.2583 0 0 0 255 255 255
-3.90096 0.714357 10.1663 0 0 0 255 255 255
-3.86231 0.707094 10.0744 0 0 0 255 255 255
-3.82367 0.699831 9.98244 0 0 0 255 255 255
-3.78503 0.692569 9.8905 0 0 0 255 255 255
-3.74638 0.685306 9.79855 0 0 0 255 255 255
-3.70774 0.678043 9.70661 0 0 0 255 255 255
-3.6691 0.67078 9.61466 0 0 0 255 255 255
-3.63046 0.663517 9.52271 0 0 0 255 255 255
-3.59181 0.656255 9.43077 0 0 0 255 255 255
-3.55317 0.648992 9.33882 0 0 0 255 255 255
-3.51453 0.641729 9.24688 0 0 0 255 255 255
-3.47589 0.634466 9.15493 0 0 0 255 255 255
-3.43724 0.627203 9.06298 0 0 0 255 255 255
-3.3986 0.619941 8.97104 0 0 0 255 255 255
-3.35996 0.612678 8.87909 0 0 0 255 255 255
-3.32131 0.605415 8.78715 0 0 0 255 255 255
-3.28267 0.598152 8.6952 0 0 0 255 255 255
-3.24403 0.590889 8.60325 0 0 0 255 255 255
-3.20539 0.583627 8.51131 0 0 0 255 255 255
-3.16674 0.576364 8.41936 0 0 0 255 255 255
-3.1281 0.569101 8.32742 0 0 0 255 255 255
-3.08946 0.561838 8.23547 0 0 0 255 255 255
-3.05082 0.554576 8.14353 0 0 0 255 255 255
-3.01217 0.547313 8.05158 0 0 0 255 255 255
-2.97353 0.54005 7.95964 0 0 0 255 255 255
-2.93489 0.532787 7.86769 0 0 0 255 255 255
-2.89625 0.525524 7.77575 0 0 0 255 255 255
-2.8576 0.518262 7.6838 0 0 0 255 255 255
-2.81896 0.510999 7.59185 0 0 0 255 255 255
-2.78032 0.503736 7.49991 0 0 0 255 255 255
-2.74167 0.496473 7.40796 0 0 0 255 255 255
-2.70303 0.489211 7.31602 0 0 0 255 255 255
-2.66439 0.481948 7.22407 0 0 0 255 255 255
-2.62575 0.474685 7.13213 0 0 0 255 255 255
-2.5871 0.467422 7.04018 0 0 0 255 255 255
-2.54846 0.460159 6.94824 0 0 0 255 255 255
-2.50982 0.452897 6.85629 0 0 0 255 255 255
-2.47118 0.445634 6.76434 0 0 0 255 255 255
-2.43253 0.438371 6.6724 0 0 0 255 255 255
-2.39389 0.431108 6.58045 0 0 0 255 255 255
-2.35525 0.423846 6.48851 0 0 0 255 255 255
-2.31661 0.416583 6.39656 0 0 0 255 255 255
-2.27796 0.40932 6.30462 0 0 0 255 255 255
-2.23932 0.402057 6.21267 0 0 0 255 255 255
-2.20068 0.394795 6.12073 0 0 0 255 255 255
-2.16204 0.387532 6.02878 0 0 0 255 255 255
-2.12339 0.380269 5.93683 0 0 0 255 255 255
-2.08475 0.373006 5.84489 0 0 0 255 255 255
-2.04611 0.365743 5.75294 0 0 0 255 255 255
-2.00746 0.358481 5.661 0 0 0 255 255 255
-1.96882 0.351218 5.56905 0 0 0 255 255 255
-1.93018 0.343955 5.47711 0 0 0 255 255 255
-1.89154 0.336692 5.38516 0 0 0 255 255 255
-1.85289 0.32943 5.29322 0 0 0 255 255 255
-1.81425 0.322167 5.20127 0 0 0 255 255 255
-1.77561 0.314904 5.10932 0 0 0 255 255 255
-1.73697 0.307641 5.01738 0 0 0 255 255 255
-1.69832 0.300378 4.92543 0 0 0 255 255 255
-1.65968 0.293116 4.83349 0 0 0 255 255 255
-1.62104 0.285853 4.74154 0 0 0 255 255 255
-1.5824 0.27859 4.6496 0 0 0 255 255 255
-1.54375 0.271327 4.55765 0 0 0 255 255 255
-1.50511 0.264065 4.46571 0 0 0 255 255 255
-1.46647 0.256802 4.37376 0 0 0 255 255 255
-1.42783 0.249539 4.28181 0 0 0 255 255 255
-1.38918 0.242276 4.18987 0 0 0 255 255 255
-1.35054 0.235013 4.09792 0 0 0 255 255 255
-1.3119 0.227751 4.00598 0 0 0 255 255 255
-1.27325 0.220488 3.91403 0 0 0 255 255 255
-1.23461 0.213225 3.82209 0 0 0 255 255 255
-1.19597 0.205962 3.73014 0 0 0 255 255 255
-1.15733 0.1987 3.6382 0 0 0 255 255 255
-1.11868 0.191437 3.54625 0 0 0 255 255 255
-1.08004 0.184174 3.45431 0 0 0 255 255 255
-1.0414 0.176911 3.36236 0 0 0 255 255 255
-1.00276 0.169649 3.27041 0 0 0 255 255 255
-0.964114 0.162386 3.17847 0 0 0 255 255 255
-0.925471 0.155123 3.08652 0 0 0 255 255 255
-0.886828 0.14786 2.99458 0 0 0 255 255 255
-0.848186 0.140597 2.90263 0 0 0 255 255 255
-0.809543 0.133335 2.81069 0 0 0 255 255 255
-0.7709 0.126072 2.71874 0 0 0 255 255 255
-0.732258 0.118809 2.62679 0 0 0 255 255 255
-0.693615 0.111546 2.53485 0 0 0 255 255 255
-0.654972 0.104283 2.4429 0 0 0 255 255 255
-0.61633 0.0970207 2.35096 0 0 0 255 255 255
-0.577687 0.0897579 2.25901 0 0 0 255 255 255
-0.539044 0.0824951 2.16707 0 0 0 255 255 255
-0.500402 0.0752323 2.07512 0 0 0 255 255 255
-0.461759 0.0679696 1.98318 0 0 0 255 255 255
-0.423116 0.0607068 1.89123 0 0 0 255 255 255
-0.384474 0.053444 1.79928 0 0 0 255 255 255
-0.345831 0.0461812 1.70734 0 0 0 255 255 255
-0.307188 0.0389184 1.61539 0 0 0 255 255 255
-0.268546 0.0316557 1.52345 0 0 0 255 255 255
-0.229903 0.0243929 1.4315 0 0 0 255 255 255
-0.19126 0.0171301 1.33956 0 0 0 255 255 255
-0.152618 0.00986731 1.24761 0 0 0 255 255 255
-0.113975 0.00260453 1.15566 0 0 0 255 255 255
-0.0753324 -0.00465825 1.06372 0 0 0 255 255 255
-0.0366897 -0.011921 0.971773 0 0 0 255 255 255
0.00195293 -0.0191838 0.879828 0 0 0 255 255 255
0.0405956 -0.0264466 0.787882 0 0 0 255 255 255
0.0792383 -0.0337094 0.695936 0 0 0 255 255 255
0.117881 -0.0409722 0.603991 0 0 0 255 255 255
0.156524 -0.0482349 0.512045 0 0 0 255 255 255
0.195166 -0.0554977 0.4201 0 0 0 255 255 255
0.233809 -0.0627605 0.328154 0 0 0 255 255 255
0.272452 -0.0700233 0.236208 0 0 0 255 255 255
0.311094 -0.0772861 0.144263 0 0 0 255 255 255
0.349737 -0.0845489 0.052317 0 0 0 255 255 255
0.38838 -0.0918116 -0.0396286 0 0 0 255 255 255
0.427022 -0.0990744 -0.131574 0 0 0 255 255 255
0.465665 -0.106337 -0.22352 0 0 0 255 255 255
0.504308 -0.1136 -0.315466 0 0 0 255 255 255
0.54295 -0.120863 -0.407411 0 0 0 255 255 255
0.581593 -0.128126 -0.499357 0 0 0 255 255 255
0.620236 -0.135388 -0.591302 0 0 0 255 255 255
0.658878 -0.142651 -0.683248 0 0 0 255 255 255
0.697521 -0.149914 -0.775193 0 0 0 255 255 255
