ply
format ascii 1.0
element vertex 1188
property float x
property float y
property float z
property float nx
property float ny
property float nz
property uchar red
property uchar green
property uchar blue
end_header
-0.204329 2.56323 -6.88371 0 0 0 255 0 0
-0.201732 2.59145 -6.97961 0 0 0 255 0 0
-0.199135 2.61967 -7.07551 0 0 0 255 0 0
-0.196538 2.6479 -7.17141 0 0 0 255 0 0
-0.193942 2.67612 -7.26731 0 0 0 255 0 0
-0.191345 2.70434 -7.36321 0 0 0 255 0 0
-0.188748 2.73256 -7.45911 0 0 0 255 0 0
-0.186151 2.76079 -7.55501 0 0 0 255 0 0
-0.183554 2.78901 -7.65091 0 0 0 255 0 0
-0.180958 2.81723 -7.74681 0 0 0 255 0 0
-0.178361 2.84546 -7.84271 0 0 0 255 0 0
-0.175764 2.87368 -7.9386 0 0 0 255 0 0
-0.173167 2.9019 -8.0345 0 0 0 255 0 0
-0.17057 2.93012 -8.1304 0 0 0 255 0 0
-0.167974 2.95835 -8.2263 0 0 0 255 0 0
-5.65504 -3.13979 9.63895 0 0 0 255 0 0
-5.60685 -3.10689 9.55774 0 0 0 255 0 0
-5.55866 -3.07399 9.47653 0 0 0 255 0 0
-5.51048 -3.04109 9.39532 0 0 0 255 0 0
-5.46229 -3.00819 9.3141 0 0 0 255 0 0
-5.4141 -2.97529 9.23289 0 0 0 255 0 0
-5.36591 -2.94239 9.15168 0 0 0 255 0 0
-5.31772 -2.90949 9.07047 0 0 0 255 0 0
-5.26953 -2.87659 8.98925 0 0 0 255 0 0
-5.22134 -2.84368 8.90804 0 0 0 255 0 0
-5.17315 -2.81078 8.82683 0 0 0 255 0 0
-5.12497 -2.77788 8.74562 0 0 0 255 0 0
-5.07678 -2.74498 8.6644 0 0 0 255 0 0
-5.02859 -2.71208 8.58319 0 0 0 255 0 0
-4.9804 -2.67918 8.50198 0 0 0 255 0 0
-4.93221 -2.64628 8.42077 0 0 0 255 0 0
-4.88402 -2.61338 8.33955 0 0 0 255 0 0
-4.83583 -2.58048 8.25834 0 0 0 255 0 0
-4.78764 -2.54758 8.17713 0 0 0 255 0 0
-4.73945 -2.51468 8.09592 0 0 0 255 0 0
-4.69127 -2.48178 8.0147 0 0 0 255 0 0
-4.64308 -2.44888 7.93349 0 0 0 255 0 0
-4.59489 -2.41597 7.85228 0 0 0 255 0 0
-4.5467 -2.38307 7.77107 0 0 0 255 0 0
-4.49851 -2.35017 7.68986 0 0 0 255 0 0
-4.45032 -2.31727 7.60864 0 0 0 255 0 0
-4.40214 -2.28437 7.52743 0 0 0 255 0 0
-4.35395 -2.25147 7.44622 0 0 0 255 0 0
-4.30576 -2.21857 7.36501 0 0 0 255 0 0
-4.25757 -2.18567 7.2838 0 0 0 255 0 0
-4.20938 -2.15277 7.20258 0 0 0 255 0 0
-4.16119 -2.11987 7.12137 0 0 0 255 0 0
-4.113 -2.08697 7.04016 0 0 0 255 0 0
-4.06482 -2.05407 6.95895 0 0 0 255 0 0
-4.01663 -2.02117 6.87774 0 0 0 255 0 0
-3.96844 -1.98827 6.79652 0 0 0 255 0 0
-3.92025 -1.95537 6.71531 0 0 0 255 0 0
-3.87206 -1.92247 6.6341 0 0 0 255 0 0
-3.82387 -1.88957 6.55289 0 0 0 255 0 0
-3.77568 -1.85666 6.47168 0 0 0 255 0 0
-3.7275 -1.82376 6.39046 0 0 0 255 0 0
-3.67931 -1.79086 6.30925 0 0 0 255 0 0
-3.63112 -1.75796 6.22804 0 0 0 255 0 0
-3.58293 -1.72506 6.14683 0 0 0 255 0 0
-3.53474 -1.69216 6.06562 0 0 0 255 0 0
-3.48655 -1.65926 5.9844 0 0 0 255 0 0
-3.43836 -1.62636 5.90319 0 0 0 255 0 0
-3.39018 -1.59346 5.82198 0 0 0 255 0 0
-3.34199 -1.56056 5.74077 0 0 0 255 0 0
-3.2938 -1.52766 5.65956 0 0 0 255 0 0
-3.24561 -1.49476 5.57834 0 0 0 255 0 0
-3.19742 -1.46186 5.49713 0 0 0 255 0 0
-3.14923 -1.42896 5.41592 0 0 0 255 0 0
-3.10104 -1.39606 5.33471 0 0 0 255 0 0
-3.05286 -1.36316 5.2535 0 0 0 255 0 0
-3.00467 -1.33026 5.17228 0 0 0 255 0 0
-2.95648 -1.29735 5.09107 0 0 0 255 0 0
-2.90829 -1.26445 5.00986 0 0 0 255 0 0
-2.8601 -1.23155 4.92865 0 0 0 255 0 0
-2.81191 -1.19865 4.84744 0 0 0 255 0 0
-2.76372 -1.16575 4.76622 0 0 0 255 0 0
-2.71554 -1.13285 4.68501 0 0 0 255 0 0
-2.66735 -1.09995 4.6038 0 0 0 255 0 0
-2.61916 -1.06705 4.52259 0 0 0 255 0 0
-2.57097 -1.03415 4.44137 0 0 0 255 0 0
-2.52278 -1.00125 4.36016 0 0 0 255 0 0
-2.47459 -0.968349 4.27895 0 0 0 255 0 0
-2.4264 -0.935448 4.19774 0 0 0 255 0 0
-2.37822 -0.902548 4.11653 0 0 0 255 0 0
-2.33003 -0.869647 4.03531 0 0 0 255 0 0
-2.28184 -0.836746 3.9541 0 0 0 255 0 0
-2.23365 -0.803846 3.87289 0 0 0 255 0 0
-2.18546 -0.770945 3.79168 0 0 0 255 0 0
-2.13727 -0.738045 3.71047 0 0 0 255 0 0
-2.08908 -0.705144 3.62925 0 0 0 255 0 0
-2.0409 -0.672243 3.54804 0 0 0 255 0 0
-1.99271 -0.639343 3.46683 0 0 0 255 0 0
-1.94452 -0.606442 3.38562 0 0 0 255 0 0
-1.89633 -0.573542 3.30441 0 0 0 255 0 0
-1.84814 -0.540641 3.22319 0 0 0 255 0 0
-1.79995 -0.50774 3.14198 0 0 0 255 0 0
-1.75176 -0.47484 3.06077 0 0 0 255 0 0
-1.70358 -0.441939 2.97956 0 0 0 255 0 0
-1.65539 -0.409039 2.89835 0 0 0 255 0 0
-1.6072 -0.376138 2.81713 0 0 0 255 0 0
-1.55901 -0.343237 2.73592 0 0 0 255 0 0
-1.51082 -0.310337 2.65471 0 0 0 255 0 0
-1.46263 -0.277436 2.5735 0 0 0 255 0 0
-1.41444 -0.244535 2.49229 0 0 0 255 0 0
-1.36626 -0.211635 2.41107 0 0 0 255 0 0
-1.31807 -0.178734 2.32986 0 0 0 255 0 0
-1.26988 -0.145833 2.24865 0 0 0 255 0 0
-1.22169 -0.112933 2.16744 0 0 0 255 0 0
-1.1735 -0.0800322 2.08622 0 0 0 255 0 0
-1.12531 -0.0471316 2.00501 0 0 0 255 0 0
-1.07712 -0.014231 1.9238 0 0 0 255 0 0
-1.02893 0.0186696 1.84259 0 0 0 255 0 0
-0.980746 0.0515703 1.76138 0 0 0 255 0 0
-0.932558 0.0844709 1.68016 0 0 0 255 0 0
-0.884369 0.117372 1.59895 0 0 0 255 0 0
-0.83618 0.150272 1.51774 0 0 0 255 0 0
-0.787992 0.183173 1.43653 0 0 0 255 0 0
-0.739803 0.216073 1.35532 0 0 0 255 0 0
-0.691615 0.248974 1.2741 0 0 0 255 0 0
-0.643426 0.281875 1.19289 0 0 0 255 0 0
-0.595237 0.314775 1.11168 0 0 0 255 0 0
-0.547049 0.347676 1.03047 0 0 0 255 0 0
-0.49886 0.380577 0.949255 0 0 0 255 0 0
-0.450672 0.413477 0.868043 0 0 0 255 0 0
-0.402483 0.446378 0.786831 0 0 0 255 0 0
-0.354294 0.479278 0.705619 0 0 0 255 0 0
-0.306106 0.512179 0.624406 0 0 0 255 0 0
-0.257917 0.54508 0.543194 0 0 0 255 0 0
-0.209729 0.57798 0.461982 0 0 0 255 0 0
-0.16154 0.610881 0.38077 0 0 0 255 0 0
-0.113351 0.643782 0.299558 0 0 0 255 0 0
-0.0651627 0.676682 0.218346 0 0 0 255 0 0
-0.016974 0.709583 0.137134 0 0 0 255 0 0
0.0312146 0.742483 0.0559214 0 0 0 255 0 0
0.0794032 0.775384 -0.0252907 0 0 0 255 0 0
0.127592 0.808285 -0.106503 0 0 0 255 0 0
0.17578 0.841185 -0.187715 0 0 0 255 0 0
0.223969 0.874086 -0.268927 0 0 0 255 0 0
0.272157 0.906987 -0.350139 0 0 0 255 0 0
0.320346 0.939887 -0.431351 0 0 0 255 0 0
0.368535 0.972788 -0.512563 0 0 0 255 0 0
0.416723 1.00569 -0.593775 0 0 0 255 0 0
0.464912 1.03859 -0.674987 0 0 0 255 0 0
0.5131 1.07149 -0.756199 0 0 0 255 0 0
0.561289 1.10439 -0.837411 0 0 0 255 0 0
0.609477 1.13729 -0.918623 0 0 0 255 0 0
0.657666 1.17019 -0.999835 0 0 0 255 0 0
0.705855 1.20309 -1.08105 0 0 0 255 0 0
0.754043 1.23599 -1.16226 0 0 0 255 0 0
0.802232 1.26889 -1.24347 0 0 0 255 0 0
0.85042 1.30179 -1.32468 0 0 0 255 0 0
0.898609 1.33469 -1.4059 0 0 0 255 0 0
0.946797 1.36759 -1.48711 0 0 0 255 0 0
0.994986 1.4005 -1.56832 0 0 0 255 0 0
1.04317 1.4334 -1.64953 0 0 0 255 0 0
1.09136 1.4663 -1.73074 0 0 0 255 0 0
1.13955 1.4992 -1.81196 0 0 0 255 0 0
1.18774 1.5321 -1.89317 0 0 0 255 0 0
1.23593 1.565 -1.97438 0 0 0 255 0 0
1.28412 1.5979 -2.05559 0 0 0 255 0 0
1.33231 1.6308 -2.1368 0 0 0 255 0 0
1.38049 1.6637 -2.21802 0 0 0 255 0 0
1.42868 1.6966 -2.29923 0 0 0 255 0 0
1.47687 1.7295 -2.38044 0 0 0 255 0 0
1.52506 1.7624 -2.46165 0 0 0 255 0 0
1.57325 1.7953 -2.54286 0 0 0 255 0 0
1.62144 1.8282 -2.62408 0 0 0 255 0 0
1.66963 1.8611 -2.70529 0 0 0 255 0 0
1.71781 1.894 -2.7865 0 0 0 255 0 0
1.766 1.92691 -2.86771 0 0 0 255 0 0
1.81419 1.95981 -2.94892 0 0 0 255 0 0
1.86238 1.99271 -3.03014 0 0 0 255 0 0
1.91057 2.02561 -3.11135 0 0 0 255 0 0
1.95876 2.05851 -3.19256 0 0 0 255 0 0
2.00695 2.09141 -3.27377 0 0 0 255 0 0
2.05513 2.12431 -3.35498 0 0 0 255 0 0
2.10332 2.15721 -3.4362 0 0 0 255 0 0
2.15151 2.19011 -3.51741 0 0 0 255 0 0
2.1997 2.22301 -3.59862 0 0 0 255 0 0
2.24789 2.25591 -3.67983 0 0 0 255 0 0
2.29608 2.28881 -3.76104 0 0 0 255 0 0
2.34427 2.32171 -3.84226 0 0 0 255 0 0
2.39245 2.35461 -3.92347 0 0 0 255 0 0
2.44064 2.38751 -4.00468 0 0 0 255 0 0
2.48883 2.42041 -4.08589 0 0 0 255 0 0
2.53702 2.45331 -4.1671 0 0 0 255 0 0
2.58521 2.48622 -4.24832 0 0 0 255 0 0
2.6334 2.51912 -4.32953 0 0 0 255 0 0
2.68159 2.55202 -4.41074 0 0 0 255 0 0
2.72977 2.58492 -4.49195 0 0 0 255 0 0
2.77796 2.61782 -4.57317 0 0 0 255 0 0
2.82615 2.65072 -4.65438 0 0 0 255 0 0
2.87434 2.68362 -4.73559 0 0 0 255 0 0
2.92253 2.71652 -4.8168 0 0 0 255 0 0
2.97072 2.74942 -4.89801 0 0 0 255 0 0
3.01891 2.78232 -4.97923 0 0 0 255 0 0
3.06709 2.81522 -5.06044 0 0 0 255 0 0
3.11528 2.84812 -5.14165 0 0 0 255 0 0
3.16347 2.88102 -5.22286 0 0 0 255 0 0
3.21166 2.91392 -5.30407 0 0 0 255 0 0
3.25985 2.94682 -5.38529 0 0 0 255 0 0
3.30804 2.97972 -5.4665 0 0 0 255 0 0
3.35623 3.01263 -5.54771 0 0 0 255 0 0
3.40442 3.04553 -5.62892 0 0 0 255 0 0
3.4526 3.07843 -5.71014 0 0 0 255 0 0
3.50079 3.11133 -5.79135 0 0 0 255 0 0
3.54898 3.14423 -5.87256 0 0 0 255 0 0
3.59717 3.17713 -5.95377 0 0 0 255 0 0
3.64536 3.21003 -6.03499 0 0 0 255 0 0
3.69355 3.24293 -6.1162 0 0 0 255 0 0
3.74174 3.27583 -6.19741 0 0 0 255 0 0
3.78993 3.30873 -6.27862 0 0 0 255 0 0
3.83811 3.34163 -6.35984 0 0 0 255 0 0
3.8863 3.37453 -6.44105 0 0 0 255 0 0
3.93449 3.40743 -6.52226 0 0 0 255 0 0
6.3972 -2.16482 8.07753 0 0 0 255 0 0
6.33344 -2.14059 8.00441 0 0 0 255 0 0
6.26968 -2.11636 7.93128 0 0 0 255 0 0
6.20592 -2.09213 7.85815 0 0 0 255 0 0
6.14217 -2.06789 7.78502 0 0 0 255 0 0
6.07841 -2.04366 7.71189 0 0 0 255 0 0
6.01465 -2.01943 7.63876 0 0 0 255 0 0
5.95089 -1.9952 7.56563 0 0 0 255 0 0
5.88714 -1.97096 7.4925 0 0 0 255 0 0
5.82338 -1.94673 7.41937 0 0 0 255 0 0
5.75962 -1.9225 7.34625 0 0 0 255 0 0
5.69586 -1.89827 7.27312 0 0 0 255 0 0
5.63211 -1.87403 7.19999 0 0 0 255 0 0
5.56835 -1.8498 7.12686 0 0 0 255 0 0
5.50459 -1.82557 7.05373 0 0 0 255 0 0
5.44083 -1.80134 6.9806 0 0 0 255 0 0
5.37708 -1.77711 6.90747 0 0 0 255 0 0
5.31332 -1.75287 6.83434 0 0 0 255 0 0
5.24956 -1.72864 6.76121 0 0 0 255 0 0
5.1858 -1.70441 6.68809 0 0 0 255 0 0
5.12205 -1.68018 6.61496 0 0 0 255 0 0
5.05829 -1.65594 6.54183 0 0 0 255 0 0
4.99453 -1.63171 6.4687 0 0 0 255 0 0
4.93077 -1.60748 6.39557 0 0 0 255 0 0
4.86702 -1.58325 6.32244 0 0 0 255 0 0
4.80326 -1.55901 6.24931 0 0 0 255 0 0
4.7395 -1.53478 6.17619 0 0 0 255 0 0
4.67574 -1.51055 6.10306 0 0 0 255 0 0
4.61199 -1.48632 6.02993 0 0 0 255 0 0
4.54823 -1.46209 5.9568 0 0 0 255 0 0
4.48447 -1.43785 5.88367 0 0 0 255 0 0
4.42072 -1.41362 5.81054 0 0 0 255 0 0
4.35696 -1.38939 5.73741 0 0 0 255 0 0
4.2932 -1.36516 5.66428 0 0 0 255 0 0
4.22944 -1.34092 5.59116 0 0 0 255 0 0
4.16569 -1.31669 5.51803 0 0 0 255 0 0
4.10193 -1.29246 5.4449 0 0 0 255 0 0
4.03817 -1.26823 5.37177 0 0 0 255 0 0
3.97441 -1.244 5.29864 0 0 0 255 0 0
3.91066 -1.21976 5.22551 0 0 0 255 0 0
3.8469 -1.19553 5.15238 0 0 0 255 0 0
3.78314 -1.1713 5.07926 0 0 0 255 0 0
3.71939 -1.14707 5.00613 0 0 0 255 0 0
3.65563 -1.12283 4.933 0 0 0 255 0 0
3.59187 -1.0986 4.85987 0 0 0 255 0 0
3.52811 -1.07437 4.78674 0 0 0 255 0 0
3.46436 -1.05014 4.71361 0 0 0 255 0 0
3.4006 -1.02591 4.64048 0 0 0 255 0 0
3.33684 -1.00167 4.56736 0 0 0 255 0 0
3.27308 -0.977441 4.49423 0 0 0 255 0 0
3.20933 -0.953209 4.4211 0 0 0 255 0 0
3.14557 -0.928976 4.34797 0 0 0 255 0 0
3.08181 -0.904744 4.27484 0 0 0 255 0 0
3.01806 -0.880512 4.20171 0 0 0 255 0 0
2.9543 -0.85628 4.12858 0 0 0 255 0 0
2.89054 -0.832047 4.05546 0 0 0 255 0 0
2.82678 -0.807815 3.98233 0 0 0 255 0 0
2.76303 -0.783583 3.9092 0 0 0 255 0 0
2.69927 -0.759351 3.83607 0 0 0 255 0 0
2.63551 -0.735119 3.76294 0 0 0 255 0 0
2.57175 -0.710886 3.68981 0 0 0 255 0 0
2.508 -0.686654 3.61668 0 0 0 255 0 0
2.44424 -0.662422 3.54356 0 0 0 255 0 0
2.38048 -0.63819 3.47043 0 0 0 255 0 0
2.31673 -0.613957 3.3973 0 0 0 255 0 0
2.25297 -0.589725 3.32417 0 0 0 255 0 0
2.18921 -0.565493 3.25104 0 0 0 255 0 0
2.12545 -0.541261 3.17791 0 0 0 255 0 0
2.0617 -0.517028 3.10478 0 0 0 255 0 0
1.99794 -0.492796 3.03166 0 0 0 255 0 0
1.93418 -0.468564 2.95853 0 0 0 255 0 0
1.87042 -0.444332 2.8854 0 0 0 255 0 0
1.80667 -0.420099 2.81227 0 0 0 255 0 0
1.74291 -0.395867 2.73914 0 0 0 255 0 0
1.67915 -0.371635 2.66601 0 0 0 255 0 0
1.6154 -0.347403 2.59288 0 0 0 255 0 0
1.55164 -0.32317 2.51976 0 0 0 255 0 0
1.48788 -0.298938 2.44663 0 0 0 255 0 0
1.42412 -0.274706 2.3735 0 0 0 255 0 0
1.36037 -0.250474 2.30037 0 0 0 255 0 0
1.29661 -0.226241 2.22724 0 0 0 255 0 0
1.23285 -0.202009 2.15411 0 0 0 255 0 0
1.16909 -0.177777 2.08098 0 0 0 255 0 0
1.10534 -0.153545 2.00786 0 0 0 255 0 0
1.04158 -0.129312 1.93473 0 0 0 255 0 0
0.977822 -0.10508 1.8616 0 0 0 255 0 0
0.914065 -0.0808477 1.78847 0 0 0 255 0 0
0.850308 -0.0566155 1.71534 0 0 0 255 0 0
0.78655 -0.0323832 1.64221 0 0 0 255 0 0
0.722793 -0.00815091 1.56908 0 0 0 255 0 0
0.659036 0.0160814 1.49595 0 0 0 255 0 0
0.595278 0.0403136 1.42283 0 0 0 255 0 0
0.531521 0.0645459 1.3497 0 0 0 255 0 0
0.467764 0.0887782 1.27657 0 0 0 255 0 0
0.404006 0.11301 1.20344 0 0 0 255 0 0
0.340249 0.137243 1.13031 0 0 0 255 0 0
0.276492 0.161475 1.05718 0 0 0 255 0 0
0.212734 0.185707 0.984054 0 0 0 255 0 0
0.148977 0.20994 0.910925 0 0 0 255 0 0
0.0852196 0.234172 0.837796 0 0 0 255 0 0
0.0214623 0.258404 0.764668 0 0 0 255 0 0
-0.042295 0.282636 0.691539 0 0 0 255 0 0
-0.106052 0.306869 0.61841 0 0 0 255 0 0
-0.16981 0.331101 0.545282 0 0 0 255 0 0
-0.233567 0.355333 0.472153 0 0 0 255 0 0
-0.297324 0.379565 0.399024 0 0 0 255 0 0
-0.361082 0.403798 0.325896 0 0 0 255 0 0
-0.424839 0.42803 0.252767 0 0 0 255 0 0
-0.488596 0.452262 0.179638 0 0 0 255 0 0
-0.552354 0.476494 0.10651 0 0 0 255 0 0
-0.616111 0.500727 0.0333811 0 0 0 255 0 0
-0.679868 0.524959 -0.0397475 0 0 0 255 0 0
-0.743626 0.549191 -0.112876 0 0 0 255 0 0
-0.807383 0.573424 -0.186005 0 0 0 255 0 0
-0.87114 0.597656 -0.259134 0 0 0 255 0 0
-0.934898 0.621888 -0.332262 0 0 0 255 0 0
-0.998655 0.64612 -0.405391 0 0 0 255 0 0
-1.06241 0.670353 -0.47852 0 0 0 255 0 0
-1.12617 0.694585 -0.551648 0 0 0 255 0 0
-1.18993 0.718817 -0.624777 0 0 0 255 0 0
-1.25368 0.743049 -0.697906 0 0 0 255 0 0
-1.31744 0.767282 -0.771034 0 0 0 255 0 0
-1.3812 0.791514 -0.844163 0 0 0 255 0 0
-1.44496 0.815746 -0.917291 0 0 0 255 0 0
-1.50871 0.839978 -0.99042 0 0 0 255 0 0
-1.57247 0.864211 -1.06355 0 0 0 255 0 0
-1.63623 0.888443 -1.13668 0 0 0 255 0 0
-1.69999 0.912675 -1.20981 0 0 0 255 0 0
-1.76374 0.936907 -1.28293 0 0 0 255 0 0
-1.8275 0.96114 -1.35606 0 0 0 255 0 0
-1.89126 0.985372 -1.42919 0 0 0 255 0 0
-1.95501 1.0096 -1.50232 0 0 0 255 0 0
-2.01877 1.03384 -1.57545 0 0 0 255 0 0
-2.08253 1.05807 -1.64858 0 0 0 255 0 0
-2.14629 1.0823 -1.72171 0 0 0 255 0 0
-2.21004 1.10653 -1.79483 0 0 0 255 0 0
-2.2738 1.13077 -1.86796 0 0 0 255 0 0
-2.33756 1.155 -1.94109 0 0 0 255 0 0
-2.40132 1.17923 -2.01422 0 0 0 255 0 0
-2.46507 1.20346 -2.08735 0 0 0 255 0 0
-2.52883 1.22769 -2.16048 0 0 0 255 0 0
-2.59259 1.25193 -2.23361 0 0 0 255 0 0
-2.65634 1.27616 -2.30673 0 0 0 255 0 0
-2.7201 1.30039 -2.37986 0 0 0 255 0 0
-2.78386 1.32462 -2.45299 0 0 0 255 0 0
-2.84762 1.34886 -2.52612 0 0 0 255 0 0
-2.91137 1.37309 -2.59925 0 0 0 255 0 0
-2.97513 1.39732 -2.67238 0 0 0 255 0 0
-3.03889 1.42155 -2.74551 0 0 0 255 0 0
-3.10265 1.44578 -2.81863 0 0 0 255 0 0
-3.1664 1.47002 -2.89176 0 0 0 255 0 0
-3.23016 1.49425 -2.96489 0 0 0 255 0 0
-3.29392 1.51848 -3.03802 0 0 0 255 0 0
-3.35767 1.54271 -3.11115 0 0 0 255 0 0
-3.42143 1.56695 -3.18428 0 0 0 255 0 0
-3.48519 1.59118 -3.25741 0 0 0 255 0 0
-3.54895 1.61541 -3.33053 0 0 0 255 0 0
-3.6127 1.63964 -3.40366 0 0 0 255 0 0
-3.67646 1.66387 -3.47679 0 0 0 255 0 0
-3.74022 1.68811 -3.54992 0 0 0 255 0 0
-3.80398 1.71234 -3.62305 0 0 0 255 0 0
-3.86773 1.73657 -3.69618 0 0 0 255 0 0
-3.93149 1.7608 -3.76931 0 0 0 255 0 0
-3.99525 1.78504 -3.84244 0 0 0 255 0 0
-4.059 1.80927 -3.91556 0 0 0 255 0 0
-4.12276 1.8335 -3.98869 0 0 0 255 0 0
-4.18652 1.85773 -4.06182 0 0 0 255 0 0
-4.25028 1.88196 -4.13495 0 0 0 255 0 0
-4.31403 1.9062 -4.20808 0 0 0 255 0 0
-4.37779 1.93043 -4.28121 0 0 0 255 0 0
-4.44155 1.95466 -4.35434 0 0 0 255 0 0
-4.50531 1.97889 -4.42746 0 0 0 255 0 0
-4.56906 2.00313 -4.50059 0 0 0 255 0 0
-4.63282 2.02736 -4.57372 0 0 0 255 0 0
-4.69658 2.05159 -4.64685 0 0 0 255 0 0
-4.76033 2.07582 -4.71998 0 0 0 255 0 0
-4.82409 2.10006 -4.79311 0 0 0 255 0 0
-4.88785 2.12429 -4.86624 0 0 0 255 0 0
-4.95161 2.14852 -4.93936 0 0 0 255 0 0
-5.01536 2.17275 -5.01249 0 0 0 255 0 0
-5.07912 2.19698 -5.08562 0 0 0 255 0 0
-5.14288 2.22122 -5.15875 0 0 0 255 0 0
-5.20664 2.24545 -5.23188 0 0 0 255 0 0
-5.27039 2.26968 -5.30501 0 0 0 255 0 0
-5.33415 2.29391 -5.37814 0 0 0 255 0 0
-5.39791 2.31815 -5.45127 0 0 0 255 0 0
-5.46167 2.34238 -5.52439 0 0 0 255 0 0
-5.52542 2.36661 -5.59752 0 0 0 255 0 0
-5.58918 2.39084 -5.67065 0 0 0 255 0 0
-5.65294 2.41508 -5.74378 0 0 0 255 0 0
-5.7167 2.43931 -5.81691 0 0 0 255 0 0
-5.78045 2.46354 -5.89004 0 0 0 255 0 0
-5.84421 2.48777 -5.96317 0 0 0 255 0 0
-5.90797 2.512 -6.0363 0 0 0 255 0 0
-5.97173 2.53624 -6.10943 0 0 0 255 0 0
-6.03548 2.56047 -6.18255 0 0 0 255 0 0
-6.09924 2.5847 -6.25568 0 0 0 255 0 0
-6.163 2.60893 -6.32881 0 0 0 255 0 0
-6.22676 2.63317 -6.40194 0 0 0 255 0 0
-6.29051 2.6574 -6.47507 0 0 0 255 0 0
-0.313883 0.436455 0.484306 0 0 0 255 255 0
-3.57784 -2.83015 10.1957 0 0 0 0 255 0
-3.54448 -2.80015 10.1064 0 0 0 0 255 0
-3.51113 -2.77014 10.017 0 0 0 0 255 0
-3.47777 -2.74014 9.92763 0 0 0 0 255 0
-3.44442 -2.71014 9.83826 0 0 0 0 255 0
-3.41106 -2.68014 9.74889 0 0 0 0 255 0
-3.37771 -2.65013 9.65952 0 0 0 0 255 0
-3.34436 -2.62013 9.57014 0 0 0 0 255 0
-3.311 -2.59013 9.48077 0 0 0 0 255 0
-3.27765 -2.56013 9.3914 0 0 0 0 255 0
-3.24429 -2.53012 9.30203 0 0 0 0 255 0
-3.21094 -2.50012 9.21265 0 0 0 0 255 0
-3.17758 -2.47012 9.12328 0 0 0 0 255 0
-3.14423 -2.44012 9.03391 0 0 0 0 255 0
-3.11088 -2.41011 8.94454 0 0 0 0 255 0
-3.07752 -2.38011 8.85516 0 0 0 0 255 0
-3.04417 -2.35011 8.76579 0 0 0 0 255 0
-3.01081 -2.32011 8.67642 0 0 0 0 255 0
-2.97746 -2.2901 8.58705 0 0 0 0 255 0
-2.94411 -2.2601 8.49768 0 0 0 0 255 0
-2.91075 -2.2301 8.4083 0 0 0 0 255 0
-2.8774 -2.2001 8.31893 0 0 0 0 255 0
-2.84404 -2.17009 8.22956 0 0 0 0 255 0
-2.81069 -2.14009 8.14019 0 0 0 0 255 0
-2.77733 -2.11009 8.05082 0 0 0 0 255 0
-2.74398 -2.08009 7.96144 0 0 0 0 255 0
-2.71063 -2.05008 7.87207 0 0 0 0 255 0
-2.67727 -2.02008 7.7827 0 0 0 0 255 0
-2.64392 -1.99008 7.69333 0 0 0 0 255 0
-2.61056 -1.96008 7.60396 0 0 0 0 255 0
-2.57721 -1.93007 7.51458 0 0 0 0 255 0
-2.54386 -1.90007 7.42521 0 0 0 0 255 0
-2.5105 -1.87007 7.33584 0 0 0 0 255 0
-2.47715 -1.84007 7.24647 0 0 0 0 255 0
-2.44379 -1.81006 7.1571 0 0 0 0 255 0
-2.41044 -1.78006 7.06772 0 0 0 0 255 0
-2.37709 -1.75006 6.97835 0 0 0 0 255 0
-2.34373 -1.72006 6.88898 0 0 0 0 255 0
-2.31038 -1.69005 6.79961 0 0 0 0 255 0
-2.27702 -1.66005 6.71024 0 0 0 0 255 0
-2.24367 -1.63005 6.62086 0 0 0 0 255 0
-2.21032 -1.60005 6.53149 0 0 0 0 255 0
-2.17696 -1.57004 6.44212 0 0 0 0 255 0
-2.14361 -1.54004 6.35275 0 0 0 0 255 0
-2.11025 -1.51004 6.26338 0 0 0 0 255 0
-2.0769 -1.48004 6.17401 0 0 0 0 255 0
-2.04355 -1.45003 6.08463 0 0 0 0 255 0
-2.01019 -1.42003 5.99526 0 0 0 0 255 0
-1.97684 -1.39003 5.90589 0 0 0 0 255 0
-1.94348 -1.36003 5.81652 0 0 0 0 255 0
-1.91013 -1.33002 5.72715 0 0 0 0 255 0
-1.87677 -1.30002 5.63777 0 0 0 0 255 0
-1.84342 -1.27002 5.5484 0 0 0 0 255 0
-1.81007 -1.24002 5.45903 0 0 0 0 255 0
-1.77671 -1.21001 5.36966 0 0 0 0 255 0
-1.74336 -1.18001 5.28029 0 0 0 0 255 0
-1.71 -1.15001 5.19091 0 0 0 0 255 0
-1.67665 -1.12001 5.10154 0 0 0 0 255 0
-1.6433 -1.09001 5.01217 0 0 0 0 255 0
-1.60994 -1.06 4.9228 0 0 0 0 255 0
-1.57659 -1.03 4.83343 0 0 0 0 255 0
-1.54323 -0.999998 4.74405 0 0 0 0 255 0
-1.50988 -0.969995 4.65468 0 0 0 0 255 0
-1.47653 -0.939993 4.56531 0 0 0 0 255 0
-1.44317 -0.909991 4.47594 0 0 0 0 255 0
-1.40982 -0.879988 4.38657 0 0 0 0 255 0
-1.37646 -0.849986 4.29719 0 0 0 0 255 0
-1.34311 -0.819983 4.20782 0 0 0 0 255 0
-1.30976 -0.789981 4.11845 0 0 0 0 255 0
-1.2764 -0.759978 4.02908 0 0 0 0 255 0
-1.24305 -0.729976 3.93971 0 0 0 0 255 0
-1.20969 -0.699974 3.85034 0 0 0 0 255 0
-1.17634 -0.669971 3.76096 0 0 0 0 255 0
-1.14299 -0.639969 3.67159 0 0 0 0 255 0
-1.10963 -0.609966 3.58222 0 0 0 0 255 0
-1.07628 -0.579964 3.49285 0 0 0 0 255 0
-1.04292 -0.549961 3.40348 0 0 0 0 255 0
-1.00957 -0.519959 3.3141 0 0 0 0 255 0
-0.976215 -0.489956 3.22473 0 0 0 0 255 0
-0.942861 -0.459954 3.13536 0 0 0 0 255 0
-0.909507 -0.429952 3.04599 0 0 0 0 255 0
-0.876153 -0.399949 2.95662 0 0 0 0 255 0
-0.842798 -0.369947 2.86724 0 0 0 0 255 0
-0.809444 -0.339944 2.77787 0 0 0 0 255 0
-0.77609 -0.309942 2.6885 0 0 0 0 255 0
-0.742736 -0.279939 2.59913 0 0 0 0 255 0
-0.709382 -0.249937 2.50976 0 0 0 0 255 0
-0.676028 -0.219934 2.42038 0 0 0 0 255 0
-0.642674 -0.189932 2.33101 0 0 0 0 255 0
-0.60932 -0.159929 2.24164 0 0 0 0 255 0
-0.575966 -0.129927 2.15227 0 0 0 0 255 0
-0.542611 -0.0999244 2.0629 0 0 0 0 255 0
-0.509257 -0.0699219 1.97352 0 0 0 0 255 0
-0.475903 -0.0399195 1.88415 0 0 0 0 255 0
-0.442549 -0.009917 1.79478 0 0 0 0 255 0
-0.409195 0.0200855 1.70541 0 0 0 0 255 0
-0.375841 0.0500879 1.61604 0 0 0 0 255 0
-0.342487 0.0800904 1.52666 0 0 0 0 255 0
-0.309133 0.110093 1.43729 0 0 0 0 255 0
-0.275779 0.140095 1.34792 0 0 0 0 255 0
-0.242424 0.170098 1.25855 0 0 0 0 255 0
-0.20907 0.2001 1.16918 0 0 0 0 255 0
-0.175716 0.230103 1.0798 0 0 0 0 255 0
-0.142362 0.260105 0.990431 0 0 0 0 255 0
-0.109008 0.290108 0.901059 0 0 0 0 255 0
-0.075654 0.32011 0.811687 0 0 0 0 255 0
-0.0422999 0.350113 0.722315 0 0 0 0 255 0
-0.00894576 0.380115 0.632943 0 0 0 0 255 0
0.0244084 0.410117 0.543571 0 0 0 0 255 0
0.0577625 0.44012 0.454199 0 0 0 0 255 0
0.0911166 0.470122 0.364827 0 0 0 0 255 0
0.124471 0.500125 0.275455 0 0 0 0 255 0
0.157825 0.530127 0.186083 0 0 0 0 255 0
0.191179 0.56013 0.096711 0 0 0 0 255 0
0.224533 0.590132 0.00733894 0 0 0 0 255 0
0.257887 0.620135 -0.0820331 0 0 0 0 255 0
0.291241 0.650137 -0.171405 0 0 0 0 255 0
0.324595 0.68014 -0.260777 0 0 0 0 255 0
0.357949 0.710142 -0.350149 0 0 0 0 255 0
0.391304 0.740145 -0.439521 0 0 0 0 255 0
0.424658 0.770147 -0.528893 0 0 0 0 255 0
0.458012 0.80015 -0.618265 0 0 0 0 255 0
0.491366 0.830152 -0.707637 0 0 0 0 255 0
0.52472 0.860154 -0.797009 0 0 0 0 255 0
0.558074 0.890157 -0.886381 0 0 0 0 255 0
0.591428 0.920159 -0.975753 0 0 0 0 255 0
0.624782 0.950162 -1.06512 0 0 0 0 255 0
0.658136 0.980164 -1.1545 0 0 0 0 255 0
0.69149 1.01017 -1.24387 0 0 0 0 255 0
0.724844 1.04017 -1.33324 0 0 0 0 255 0
0.758198 1.07017 -1.42261 0 0 0 0 255 0
0.791552 1.10017 -1.51198 0 0 0 0 255 0
0.824907 1.13018 -1.60136 0 0 0 0 255 0
0.858261 1.16018 -1.69073 0 0 0 0 255 0
0.891615 1.19018 -1.7801 0 0 0 0 255 0
0.924969 1.22018 -1.86947 0 0 0 0 255 0
0.958323 1.25019 -1.95884 0 0 0 0 255 0
0.991677 1.28019 -2.04822 0 0 0 0 255 0
1.02503 1.31019 -2.13759 0 0 0 0 255 0
1.05839 1.34019 -2.22696 0 0 0 0 255 0
1.09174 1.3702 -2.31633 0 0 0 0 255 0
1.12509 1.4002 -2.4057 0 0 0 0 255 0
1.15845 1.4302 -2.49508 0 0 0 0 255 0
1.1918 1.4602 -2.58445 0 0 0 0 255 0
1.22516 1.49021 -2.67382 0 0 0 0 255 0
1.25851 1.52021 -2.76319 0 0 0 0 255 0
1.29186 1.55021 -2.85256 0 0 0 0 255 0
1.32522 1.58021 -2.94194 0 0 0 0 255 0
1.35857 1.61022 -3.03131 0 0 0 0 255 0
1.39193 1.64022 -3.12068 0 0 0 0 255 0
1.42528 1.67022 -3.21005 0 0 0 0 255 0
1.45863 1.70022 -3.29942 0 0 0 0 255 0
1.49199 1.73023 -3.3888 0 0 0 0 255 0
1.52534 1.76023 -3.47817 0 0 0 0 255 0
1.5587 1.79023 -3.56754 0 0 0 0 255 0
1.59205 1.82023 -3.65691 0 0 0 0 255 0
1.6254 1.85023 -3.74628 0 0 0 0 255 0
1.65876 1.88024 -3.83565 0 0 0 0 255 0
1.69211 1.91024 -3.92503 0 0 0 0 255 0
1.72547 1.94024 -4.0144 0 0 0 0 255 0
1.75882 1.97024 -4.10377 0 0 0 0 255 0
1.79217 2.00025 -4.19314 0 0 0 0 255 0
1.82553 2.03025 -4.28251 0 0 0 0 255 0
1.85888 2.06025 -4.37189 0 0 0 0 255 0
1.89224 2.09025 -4.46126 0 0 0 0 255 0
1.92559 2.12026 -4.55063 0 0 0 0 255 0
1.95895 2.15026 -4.64 0 0 0 0 255 0
1.9923 2.18026 -4.72937 0 0 0 0 255 0
2.02565 2.21026 -4.81875 0 0 0 0 255 0
2.05901 2.24027 -4.90812 0 0 0 0 255 0
2.09236 2.27027 -4.99749 0 0 0 0 255 0
2.12572 2.30027 -5.08686 0 0 0 0 255 0
2.15907 2.33027 -5.17623 0 0 0 0 255 0
2.19242 2.36028 -5.26561 0 0 0 0 255 0
2.22578 2.39028 -5.35498 0 0 0 0 255 0
2.25913 2.42028 -5.44435 0 0 0 0 255 0
2.29249 2.45028 -5.53372 0 0 0 0 255 0
2.32584 2.48029 -5.62309 0 0 0 0 255 0
2.35919 2.51029 -5.71247 0 0 0 0 255 0
2.39255 2.54029 -5.80184 0 0 0 0 255 0
2.4259 2.57029 -5.89121 0 0 0 0 255 0
2.45926 2.6003 -5.98058 0 0 0 0 255 0
2.49261 2.6303 -6.06995 0 0 0 0 255 0
2.52596 2.6603 -6.15933 0 0 0 0 255 0
2.55932 2.6903 -6.2487 0 0 0 0 255 0
2.59267 2.72031 -6.33807 0 0 0 0 255 0
2.62603 2.75031 -6.42744 0 0 0 0 255 0
2.65938 2.78031 -6.51681 0 0 0 0 255 0
2.69274 2.81031 -6.60619 0 0 0 0 255 0
2.72609 2.84032 -6.69556 0 0 0 0 255 0
2.75944 2.87032 -6.78493 0 0 0 0 255 0
2.7928 2.90032 -6.8743 0 0 0 0 255 0
2.82615 2.93032 -6.96368 0 0 0 0 255 0
2.85951 2.96033 -7.05305 0 0 0 0 255 0
2.89286 2.99033 -7.14242 0 0 0 0 255 0
2.92622 3.02033 -7.23179 0 0 0 0 255 0
2.95957 3.05033 -7.32117 0 0 0 0 255 0
2.99292 3.08034 -7.41054 0 0 0 0 255 0
3.02628 3.11034 -7.49991 0 0 0 0 255 0
3.05963 3.14034 -7.58928 0 0 0 0 255 0
-6.45272 -2.38621 9.32306 0 0 0 0 255 0
-6.39518 -2.36088 9.24529 0 0 0 0 255 0
-6.33763 -2.33555 9.16753 0 0 0 0 255 0
-6.28009 -2.31022 9.08977 0 0 0 0 255 0
-6.22254 -2.2849 9.012 0 0 0 0 255 0
-6.165 -2.25957 8.93424 0 0 0 0 255 0
-6.10745 -2.23424 8.85648 0 0 0 0 255 0
-6.04991 -2.20891 8.77871 0 0 0 0 255 0
-5.99236 -2.18358 8.70095 0 0 0 0 255 0
-5.93481 -2.15826 8.62319 0 0 0 0 255 0
-5.87727 -2.13293 8.54542 0 0 0 0 255 0
-5.81972 -2.1076 8.46766 0 0 0 0 255 0
-5.76218 -2.08227 8.3899 0 0 0 0 255 0
-5.70463 -2.05695 8.31213 0 0 0 0 255 0
-5.64709 -2.03162 8.23437 0 0 0 0 255 0
-5.58954 -2.00629 8.15661 0 0 0 0 255 0
-5.532 -1.98096 8.07884 0 0 0 0 255 0
-5.47445 -1.95563 8.00108 0 0 0 0 255 0
-5.41691 -1.93031 7.92332 0 0 0 0 255 0
-5.35936 -1.90498 7.84555 0 0 0 0 255 0
-5.30182 -1.87965 7.76779 0 0 0 0 255 0
-5.24427 -1.85432 7.69003 0 0 0 0 255 0
-5.18673 -1.82899 7.61227 0 0 0 0 255 0
-5.12918 -1.80367 7.5345 0 0 0 0 255 0
-5.07164 -1.77834 7.45674 0 0 0 0 255 0
-5.01409 -1.75301 7.37898 0 0 0 0 255 0
-4.95655 -1.72768 7.30122 0 0 0 0 255 0
-4.899 -1.70236 7.22345 0 0 0 0 255 0
-4.84146 -1.67703 7.14569 0 0 0 0 255 0
-4.78391 -1.6517 7.06793 0 0 0 0 255 0
-4.72637 -1.62637 6.99016 0 0 0 0 255 0
-4.66882 -1.60104 6.9124 0 0 0 0 255 0
-4.61128 -1.57572 6.83464 0 0 0 0 255 0
-4.55373 -1.55039 6.75688 0 0 0 0 255 0
-4.49619 -1.52506 6.67911 0 0 0 0 255 0
-4.43864 -1.49973 6.60135 0 0 0 0 255 0
-4.3811 -1.4744 6.52359 0 0 0 0 255 0
-4.32355 -1.44908 6.44582 0 0 0 0 255 0
-4.26601 -1.42375 6.36806 0 0 0 0 255 0
-4.20846 -1.39842 6.2903 0 0 0 0 255 0
-4.15092 -1.37309 6.21254 0 0 0 0 255 0
-4.09337 -1.34777 6.13477 0 0 0 0 255 0
-4.03583 -1.32244 6.05701 0 0 0 0 255 0
-3.97828 -1.29711 5.97925 0 0 0 0 255 0
-3.92074 -1.27178 5.90148 0 0 0 0 255 0
-3.86319 -1.24645 5.82372 0 0 0 0 255 0
-3.80565 -1.22113 5.74596 0 0 0 0 255 0
-3.7481 -1.1958 5.6682 0 0 0 0 255 0
-3.69056 -1.17047 5.59043 0 0 0 0 255 0
-3.63301 -1.14514 5.51267 0 0 0 0 255 0
-3.57547 -1.11982 5.43491 0 0 0 0 255 0
-3.51792 -1.09449 5.35715 0 0 0 0 255 0
-3.46038 -1.06916 5.27938 0 0 0 0 255 0
-3.40283 -1.04383 5.20162 0 0 0 0 255 0
-3.34529 -1.0185 5.12386 0 0 0 0 255 0
-3.28774 -0.993176 5.04609 0 0 0 0 255 0
-3.23019 -0.967849 4.96833 0 0 0 0 255 0
-3.17265 -0.942521 4.89057 0 0 0 0 255 0
-3.1151 -0.917193 4.81281 0 0 0 0 255 0
-3.05756 -0.891865 4.73504 0 0 0 0 255 0
-3.00001 -0.866537 4.65728 0 0 0 0 255 0
-2.94247 -0.84121 4.57952 0 0 0 0 255 0
-2.88492 -0.815882 4.50175 0 0 0 0 255 0
-2.82738 -0.790554 4.42399 0 0 0 0 255 0
-2.76983 -0.765226 4.34623 0 0 0 0 255 0
-2.71229 -0.739898 4.26847 0 0 0 0 255 0
-2.65474 -0.71457 4.1907 0 0 0 0 255 0
-2.5972 -0.689243 4.11294 0 0 0 0 255 0
-2.53965 -0.663915 4.03518 0 0 0 0 255 0
-2.48211 -0.638587 3.95741 0 0 0 0 255 0
-2.42456 -0.613259 3.87965 0 0 0 0 255 0
-2.36702 -0.587931 3.80189 0 0 0 0 255 0
-2.30947 -0.562604 3.72413 0 0 0 0 255 0
-2.25193 -0.537276 3.64636 0 0 0 0 255 0
-2.19438 -0.511948 3.5686 0 0 0 0 255 0
-2.13684 -0.48662 3.49084 0 0 0 0 255 0
-2.07929 -0.461292 3.41308 0 0 0 0 255 0
-2.02175 -0.435965 3.33531 0 0 0 0 255 0
-1.9642 -0.410637 3.25755 0 0 0 0 255 0
-1.90666 -0.385309 3.17979 0 0 0 0 255 0
-1.84911 -0.359981 3.10202 0 0 0 0 255 0
-1.79157 -0.334653 3.02426 0 0 0 0 255 0
-1.73402 -0.309325 2.9465 0 0 0 0 255 0
-1.67648 -0.283998 2.86874 0 0 0 0 255 0
-1.61893 -0.25867 2.79097 0 0 0 0 255 0
-1.56139 -0.233342 2.71321 0 0 0 0 255 0
-1.50384 -0.208014 2.63545 0 0 0 0 255 0
-1.4463 -0.182686 2.55768 0 0 0 0 255 0
-1.38875 -0.157358 2.47992 0 0 0 0 255 0
-1.33121 -0.132031 2.40216 0 0 0 0 255 0
-1.27366 -0.106703 2.3244 0 0 0 0 255 0
-1.21612 -0.0813749 2.24663 0 0 0 0 255 0
-1.15857 -0.056047 2.16887 0 0 0 0 255 0
-1.10103 -0.0307192 2.09111 0 0 0 0 255 0
-1.04348 -0.00539133 2.01334 0 0 0 0 255 0
-0.985937 0.0199365 1.93558 0 0 0 0 255 0
-0.928392 0.0452643 1.85782 0 0 0 0 255 0
-0.870847 0.0705922 1.78005 0 0 0 0 255 0
-0.813302 0.09592 1.70229 0 0 0 0 255 0
-0.755757 0.121248 1.62453 0 0 0 0 255 0
-0.698212 0.146576 1.54677 0 0 0 0 255 0
-0.640667 0.171904 1.469 0 0 0 0 255 0
-0.583122 0.197231 1.39124 0 0 0 0 255 0
-0.525577 0.222559 1.31348 0 0 0 0 255 0
-0.468031 0.247887 1.23571 0 0 0 0 255 0
-0.410486 0.273215 1.15795 0 0 0 0 255 0
-0.352941 0.298543 1.08019 0 0 0 0 255 0
-0.295396 0.323871 1.00243 0 0 0 0 255 0
-0.237851 0.349198 0.924663 0 0 0 0 255 0
-0.180306 0.374526 0.8469 0 0 0 0 255 0
-0.122761 0.399854 0.769138 0 0 0 0 255 0
-0.0652158 0.425182 0.691375 0 0 0 0 255 0
-0.00767065 0.45051 0.613612 0 0 0 0 255 0
0.0498745 0.475838 0.535849 0 0 0 0 255 0
0.10742 0.501165 0.458086 0 0 0 0 255 0
0.164965 0.526493 0.380323 0 0 0 0 255 0
0.22251 0.551821 0.30256 0 0 0 0 255 0
0.280055 0.577149 0.224797 0 0 0 0 255 0
0.3376 0.602477 0.147035 0 0 0 0 255 0
0.395145 0.627805 0.0692716 0 0 0 0 255 0
0.45269 0.653132 -0.00849128 0 0 0 0 255 0
0.510235 0.67846 -0.0862541 0 0 0 0 255 0
0.56778 0.703788 -0.164017 0 0 0 0 255 0
0.625325 0.729116 -0.24178 0 0 0 0 255 0
0.68287 0.754444 -0.319542 0 0 0 0 255 0
0.740415 0.779771 -0.397305 0 0 0 0 255 0
0.79796 0.805099 -0.475068 0 0 0 0 255 0
0.855506 0.830427 -0.552831 0 0 0 0 255 0
0.913051 0.855755 -0.630594 0 0 0 0 255 0
0.970596 0.881083 -0.708356 0 0 0 0 255 0
1.02814 0.906411 -0.786119 0 0 0 0 255 0
1.08569 0.931738 -0.863882 0 0 0 0 255 0
1.14323 0.957066 -0.941645 0 0 0 0 255 0
1.20078 0.982394 -1.01941 0 0 0 0 255 0
1.25832 1.00772 -1.09717 0 0 0 0 255 0
1.31587 1.03305 -1.17493 0 0 0 0 255 0
1.37341 1.05838 -1.2527 0 0 0 0 255 0
1.43096 1.08371 -1.33046 0 0 0 0 255 0
1.4885 1.10903 -1.40822 0 0 0 0 255 0
1.54605 1.13436 -1.48598 0 0 0 0 255 0
1.60359 1.15969 -1.56375 0 0 0 0 255 0
1.66114 1.18502 -1.64151 0 0 0 0 255 0
1.71868 1.21034 -1.71927 0 0 0 0 255 0
1.77623 1.23567 -1.79704 0 0 0 0 255 0
1.83377 1.261 -1.8748 0 0 0 0 255 0
1.89132 1.28633 -1.95256 0 0 0 0 255 0
1.94886 1.31166 -2.03032 0 0 0 0 255 0
2.00641 1.33698 -2.10809 0 0 0 0 255 0
2.06395 1.36231 -2.18585 0 0 0 0 255 0
2.1215 1.38764 -2.26361 0 0 0 0 255 0
2.17904 1.41297 -2.34138 0 0 0 0 255 0
2.23659 1.43829 -2.41914 0 0 0 0 255 0
2.29413 1.46362 -2.4969 0 0 0 0 255 0
2.35168 1.48895 -2.57466 0 0 0 0 255 0
2.40922 1.51428 -2.65243 0 0 0 0 255 0
2.46677 1.53961 -2.73019 0 0 0 0 255 0
2.52431 1.56493 -2.80795 0 0 0 0 255 0
2.58186 1.59026 -2.88571 0 0 0 0 255 0
2.6394 1.61559 -2.96348 0 0 0 0 255 0
2.69695 1.64092 -3.04124 0 0 0 0 255 0
2.75449 1.66624 -3.119 0 0 0 0 255 0
2.81204 1.69157 -3.19677 0 0 0 0 255 0
2.86958 1.7169 -3.27453 0 0 0 0 255 0
2.92713 1.74223 -3.35229 0 0 0 0 255 0
2.98467 1.76756 -3.43005 0 0 0 0 255 0
3.04222 1.79288 -3.50782 0 0 0 0 255 0
3.09976 1.81821 -3.58558 0 0 0 0 255 0
3.15731 1.84354 -3.66334 0 0 0 0 255 0
3.21485 1.86887 -3.74111 0 0 0 0 255 0
3.2724 1.8942 -3.81887 0 0 0 0 255 0
3.32994 1.91952 -3.89663 0 0 0 0 255 0
3.38749 1.94485 -3.97439 0 0 0 0 255 0
3.44503 1.97018 -4.05216 0 0 0 0 255 0
3.50258 1.99551 -4.12992 0 0 0 0 255 0
3.56012 2.02083 -4.20768 0 0 0 0 255 0
3.61767 2.04616 -4.28545 0 0 0 0 255 0
3.67521 2.07149 -4.36321 0 0 0 0 255 0
3.73276 2.09682 -4.44097 0 0 0 0 255 0
3.7903 2.12215 -4.51873 0 0 0 0 255 0
3.84785 2.14747 -4.5965 0 0 0 0 255 0
3.90539 2.1728 -4.67426 0 0 0 0 255 0
3.96294 2.19813 -4.75202 0 0 0 0 255 0
4.02048 2.22346 -4.82979 0 0 0 0 255 0
4.07803 2.24878 -4.90755 0 0 0 0 255 0
4.13557 2.27411 -4.98531 0 0 0 0 255 0
4.19312 2.29944 -5.06307 0 0 0 0 255 0
4.25066 2.32477 -5.14084 0 0 0 0 255 0
4.30821 2.3501 -5.2186 0 0 0 0 255 0
4.36576 2.37542 -5.29636 0 0 0 0 255 0
4.4233 2.40075 -5.37413 0 0 0 0 255 0
4.48085 2.42608 -5.45189 0 0 0 0 255 0
4.53839 2.45141 -5.52965 0 0 0 0 255 0
4.59594 2.47674 -5.60742 0 0 0 0 255 0
4.65348 2.50206 -5.68518 0 0 0 0 255 0
4.71103 2.52739 -5.76294 0 0 0 0 255 0
4.76857 2.55272 -5.84071 0 0 0 0 255 0
4.82612 2.57805 -5.91847 0 0 0 0 255 0
4.88366 2.60338 -5.99623 0 0 0 0 255 0
4.94121 2.6287 -6.074 0 0 0 0 255 0
4.99875 2.65403 -6.15176 0 0 0 0 255 0
3.34494 -1.34752 10.0123 0 0 0 0 255 0
3.31387 -1.3317 9.91859 0 0 0 0 255 0
3.2828 -1.31588 9.82486 0 0 0 0 255 0
3.25172 -1.30006 9.73114 0 0 0 0 255 0
3.22065 -1.28424 9.63741 0 0 0 0 255 0
3.18958 -1.26842 9.54369 0 0 0 0 255 0
3.15851 -1.2526 9.44996 0 0 0 0 255 0
3.12743 -1.23678 9.35624 0 0 0 0 255 0
3.09636 -1.22096 9.26252 0 0 0 0 255 0
3.06529 -1.20514 9.16879 0 0 0 0 255 0
3.03422 -1.18932 9.07507 0 0 0 0 255 0
3.00314 -1.17349 8.98134 0 0 0 0 255 0
2.97207 -1.15767 8.88762 0 0 0 0 255 0
2.941 -1.14185 8.79389 0 0 0 0 255 0
2.90993 -1.12603 8.70017 0 0 0 0 255 0
2.87885 -1.11021 8.60644 0 0 0 0 255 0
2.84778 -1.09439 8.51272 0 0 0 0 255 0
2.81671 -1.07857 8.41899 0 0 0 0 255 0
2.78564 -1.06275 8.32527 0 0 0 0 255 0
2.75456 -1.04693 8.23155 0 0 0 0 255 0
2.72349 -1.03111 8.13782 0 0 0 0 255 0
2.69242 -1.01529 8.0441 0 0 0 0 255 0
2.66135 -0.999469 7.95037 0 0 0 0 255 0
2.63027 -0.983649 7.85665 0 0 0 0 255 0
2.5992 -0.967828 7.76293 0 0 0 0 255 0
2.56813 -0.952008 7.6692 0 0 0 0 255 0
2.53706 -0.936187 7.57548 0 0 0 0 255 0
2.50599 -0.920367 7.48175 0 0 0 0 255 0
2.47491 -0.904546 7.38803 0 0 0 0 255 0
2.44384 -0.888726 7.2943 0 0 0 0 255 0
2.41277 -0.872905 7.20058 0 0 0 0 255 0
2.3817 -0.857085 7.10686 0 0 0 0 255 0
2.35062 -0.841264 7.01313 0 0 0 0 255 0
2.31955 -0.825444 6.91941 0 0 0 0 255 0
2.28848 -0.809623 6.82568 0 0 0 0 255 0
2.25741 -0.793803 6.73196 0 0 0 0 255 0
2.22633 -0.777983 6.63824 0 0 0 0 255 0
2.19526 -0.762162 6.54451 0 0 0 0 255 0
2.16419 -0.746342 6.45079 0 0 0 0 255 0
2.13312 -0.730521 6.35706 0 0 0 0 255 0
2.10204 -0.714701 6.26334 0 0 0 0 255 0
2.07097 -0.69888 6.16962 0 0 0 0 255 0
2.0399 -0.68306 6.07589 0 0 0 0 255 0
2.00883 -0.667239 5.98217 0 0 0 0 255 0
1.97776 -0.651419 5.88844 0 0 0 0 255 0
1.94668 -0.635598 5.79472 0 0 0 0 255 0
1.91561 -0.619778 5.701 0 0 0 0 255 0
1.88454 -0.603957 5.60727 0 0 0 0 255 0
1.85347 -0.588137 5.51355 0 0 0 0 255 0
1.82239 -0.572316 5.41982 0 0 0 0 255 0
1.79132 -0.556496 5.3261 0 0 0 0 255 0
1.76025 -0.540675 5.23237 0 0 0 0 255 0
1.72918 -0.524855 5.13865 0 0 0 0 255 0
1.6981 -0.509035 5.04493 0 0 0 0 255 0
1.66703 -0.493214 4.9512 0 0 0 0 255 0
1.63596 -0.477394 4.85748 0 0 0 0 255 0
1.60489 -0.461573 4.76375 0 0 0 0 255 0
1.57381 -0.445753 4.67003 0 0 0 0 255 0
1.54274 -0.429932 4.57631 0 0 0 0 255 0
1.51167 -0.414112 4.48258 0 0 0 0 255 0
1.4806 -0.398291 4.38886 0 0 0 0 255 0
1.44953 -0.382471 4.29513 0 0 0 0 255 0
1.41845 -0.36665 4.20141 0 0 0 0 255 0
1.38738 -0.35083 4.10769 0 0 0 0 255 0
1.35631 -0.335009 4.01396 0 0 0 0 255 0
1.32524 -0.319189 3.92024 0 0 0 0 255 0
1.29416 -0.303368 3.82651 0 0 0 0 255 0
1.26309 -0.287548 3.73279 0 0 0 0 255 0
1.23202 -0.271727 3.63907 0 0 0 0 255 0
1.20095 -0.255907 3.54534 0 0 0 0 255 0
1.16987 -0.240087 3.45162 0 0 0 0 255 0
1.1388 -0.224266 3.35789 0 0 0 0 255 0
1.10773 -0.208446 3.26417 0 0 0 0 255 0
1.07666 -0.192625 3.17045 0 0 0 0 255 0
1.04558 -0.176805 3.07672 0 0 0 0 255 0
1.01451 -0.160984 2.983 0 0 0 0 255 0
0.98344 -0.145164 2.88927 0 0 0 0 255 0
0.952368 -0.129343 2.79555 0 0 0 0 255 0
0.921295 -0.113523 2.70182 0 0 0 0 255 0
0.890223 -0.0977023 2.6081 0 0 0 0 255 0
0.859151 -0.0818818 2.51438 0 0 0 0 255 0
0.828078 -0.0660613 2.42065 0 0 0 0 255 0
0.797006 -0.0502408 2.32693 0 0 0 0 255 0
0.765933 -0.0344203 2.2332 0 0 0 0 255 0
0.734861 -0.0185998 2.13948 0 0 0 0 255 0
0.703789 -0.00277932 2.04576 0 0 0 0 255 0
0.672716 0.0130412 1.95203 0 0 0 0 255 0
0.641644 0.0288617 1.85831 0 0 0 0 255 0
0.610572 0.0446822 1.76458 0 0 0 0 255 0
0.579499 0.0605026 1.67086 0 0 0 0 255 0
0.548427 0.0763231 1.57713 0 0 0 0 255 0
0.517354 0.0921436 1.48341 0 0 0 0 255 0
0.486282 0.107964 1.38969 0 0 0 0 255 0
0.45521 0.123785 1.29596 0 0 0 0 255 0
0.424137 0.139605 1.20224 0 0 0 0 255 0
0.393065 0.155426 1.10851 0 0 0 0 255 0
0.361992 0.171246 1.01479 0 0 0 0 255 0
0.33092 0.187067 0.921065 0 0 0 0 255 0
0.299848 0.202887 0.827341 0 0 0 0 255 0
0.268775 0.218708 0.733617 0 0 0 0 255 0
0.237703 0.234528 0.639893 0 0 0 0 255 0
0.206631 0.250349 0.546169 0 0 0 0 255 0
0.175558 0.266169 0.452445 0 0 0 0 255 0
0.144486 0.281989 0.35872 0 0 0 0 255 0
0.113413 0.29781 0.264996 0 0 0 0 255 0
0.0823411 0.31363 0.171272 0 0 0 0 255 0
0.0512687 0.329451 0.0775479 0 0 0 0 255 0
0.0201963 0.345271 -0.0161763 0 0 0 0 255 0
-0.0108761 0.361092 -0.1099 0 0 0 0 255 0
-0.0419485 0.376912 -0.203625 0 0 0 0 255 0
-0.0730208 0.392733 -0.297349 0 0 0 0 255 0
-0.104093 0.408553 -0.391073 0 0 0 0 255 0
-0.135166 0.424374 -0.484797 0 0 0 0 255 0
-0.166238 0.440194 -0.578521 0 0 0 0 255 0
-0.19731 0.456015 -0.672246 0 0 0 0 255 0
-0.228383 0.471835 -0.76597 0 0 0 0 255 0
-0.259455 0.487656 -0.859694 0 0 0 0 255 0
-0.290528 0.503476 -0.953418 0 0 0 0 255 0
-0.3216 0.519297 -1.04714 0 0 0 0 255 0
-0.352672 0.535117 -1.14087 0 0 0 0 255 0
-0.383745 0.550938 -1.23459 0 0 0 0 255 0
-0.414817 0.566758 -1.32831 0 0 0 0 255 0
-0.445889 0.582579 -1.42204 0 0 0 0 255 0
-0.476962 0.598399 -1.51576 0 0 0 0 255 0
-0.508034 0.61422 -1.60949 0 0 0 0 255 0
-0.539106 0.63004 -1.70321 0 0 0 0 255 0
-0.570179 0.645861 -1.79694 0 0 0 0 255 0
-0.601251 0.661681 -1.89066 0 0 0 0 255 0
-0.632323 0.677502 -1.98438 0 0 0 0 255 0
-0.663396 0.693322 -2.07811 0 0 0 0 255 0
-0.694468 0.709143 -2.17183 0 0 0 0 255 0
-0.725541 0.724963 -2.26556 0 0 0 0 255 0
-0.756613 0.740783 -2.35928 0 0 0 0 255 0
-0.787685 0.756604 -2.453 0 0 0 0 255 0
-0.818758 0.772424 -2.54673 0 0 0 0 255 0
-0.84983 0.788245 -2.64045 0 0 0 0 255 0
-0.880902 0.804065 -2.73418 0 0 0 0 255 0
-0.911975 0.819886 -2.8279 0 0 0 0 255 0
-0.943047 0.835706 -2.92162 0 0 0 0 255 0
-0.974119 0.851527 -3.01535 0 0 0 0 255 0
-1.00519 0.867347 -3.10907 0 0 0 0 255 0
-1.03626 0.883168 -3.2028 0 0 0 0 255 0
-1.06734 0.898988 -3.29652 0 0 0 0 255 0
-1.09841 0.914809 -3.39024 0 0 0 0 255 0
-1.12948 0.930629 -3.48397 0 0 0 0 255 0
-1.16055 0.94645 -3.57769 0 0 0 0 255 0
-1.19163 0.96227 -3.67142 0 0 0 0 255 0
-1.2227 0.978091 -3.76514 0 0 0 0 255 0
-1.25377 0.993911 -3.85887 0 0 0 0 255 0
-1.28484 1.00973 -3.95259 0 0 0 0 255 0
-1.31592 1.02555 -4.04631 0 0 0 0 255 0
-1.34699 1.04137 -4.14004 0 0 0 0 255 0
-1.37806 1.05719 -4.23376 0 0 0 0 255 0
-1.40913 1.07301 -4.32749 0 0 0 0 255 0
-1.4402 1.08883 -4.42121 0 0 0 0 255 0
-1.47128 1.10465 -4.51493 0 0 0 0 255 0
-1.50235 1.12047 -4.60866 0 0 0 0 255 0
-1.53342 1.1363 -4.70238 0 0 0 0 255 0
-1.56449 1.15212 -4.79611 0 0 0 0 255 0
-1.59557 1.16794 -4.88983 0 0 0 0 255 0
-1.62664 1.18376 -4.98355 0 0 0 0 255 0
-1.65771 1.19958 -5.07728 0 0 0 0 255 0
-1.68878 1.2154 -5.171 0 0 0 0 255 0
-1.71986 1.23122 -5.26473 0 0 0 0 255 0
-1.75093 1.24704 -5.35845 0 0 0 0 255 0
-1.782 1.26286 -5.45217 0 0 0 0 255 0
-1.81307 1.27868 -5.5459 0 0 0 0 255 0
-1.84415 1.2945 -5.63962 0 0 0 0 255 0
-1.87522 1.31032 -5.73335 0 0 0 0 255 0
-1.90629 1.32614 -5.82707 0 0 0 0 255 0
-1.93736 1.34196 -5.92079 0 0 0 0 255 0
-1.96843 1.35778 -6.01452 0 0 0 0 255 0
-1.99951 1.3736 -6.10824 0 0 0 0 255 0
-2.03058 1.38942 -6.20197 0 0 0 0 255 0
-2.06165 1.40524 -6.29569 0 0 0 0 255 0
-2.09272 1.42106 -6.38942 0 0 0 0 255 0
-2.1238 1.43688 -6.48314 0 0 0 0 255 0
-2.15487 1.4527 -6.57686 0 0 0 0 255 0
-2.18594 1.46853 -6.67059 0 0 0 0 255 0
-2.21701 1.48435 -6.76431 0 0 0 0 255 0
-2.24809 1.50017 -6.85804 0 0 0 0 255 0
-2.27916 1.51599 -6.95176 0 0 0 0 255 0
-2.31023 1.53181 -7.04548 0 0 0 0 255 0
-2.3413 1.54763 -7.13921 0 0 0 0 255 0
-2.37238 1.56345 -7.23293 0 0 0 0 255 0
-2.40345 1.57927 -7.32666 0 0 0 0 255 0
-2.43452 1.59509 -7.42038 0 0 0 0 255 0
-2.46559 1.61091 -7.51411 0 0 0 0 255 0
-2.49667 1.62673 -7.60783 0 0 0 0 255 0
-2.52774 1.64255 -7.70156 0 0 0 0 255 0
-2.55881 1.65837 -7.79528 0 0 0 0 255 0
-2.58988 1.67419 -7.889 0 0 0 0 255 0
-2.62096 1.69001 -7.98273 0 0 0 0 255 0
-2.65203 1.70583 -8.07645 0 0 0 0 255 0
-2.6831 1.72165 -8.17018 0 0 0 0 255 0
-2.71417 1.73747 -8.2639 0 0 0 0 255 0
-2.74525 1.75329 -8.35763 0 0 0 0 255 0
-2.77632 1.76912 -8.45135 0 0 0 0 255 0
-2.80739 1.78494 -8.54508 0 0 0 0 255 0
-2.83846 1.80076 -8.6388 0 0 0 0 255 0
0.115262 0.414505 0.405539 0 0 0 255 255 0
0.381423 -0.33132 11.2295 0 0 0 0 0 255
0.373771 -0.327753 11.1298 0 0 0 0 0 255
0.366119 -0.324186 11.0302 0 0 0 0 0 255
0.358468 -0.32062 10.9305 0 0 0 0 0 255
0.350816 -0.317053 10.8309 0 0 0 0 0 255
0.343164 -0.313487 10.7313 0 0 0 0 0 255
0.335512 -0.30992 10.6316 0 0 0 0 0 255
0.32786 -0.306353 10.532 0 0 0 0 0 255
0.320208 -0.302787 10.4323 0 0 0 0 0 255
0.312556 -0.29922 10.3327 0 0 0 0 0 255
0.304905 -0.295654 10.233 0 0 0 0 0 255
0.297253 -0.292087 10.1334 0 0 0 0 0 255
0.289601 -0.288521 10.0337 0 0 0 0 0 255
0.281949 -0.284954 9.9341 0 0 0 0 0 255
0.274297 -0.281387 9.83446 0 0 0 0 0 255
0.266645 -0.277821 9.73482 0 0 0 0 0 255
0.258993 -0.274254 9.63517 0 0 0 0 0 255
0.251341 -0.270688 9.53553 0 0 0 0 0 255
0.24369 -0.267121 9.43589 0 0 0 0 0 255
0.236038 -0.263555 9.33624 0 0 0 0 0 255
0.228386 -0.259988 9.2366 0 0 0 0 0 255
0.220734 -0.256421 9.13696 0 0 0 0 0 255
0.213082 -0.252855 9.03731 0 0 0 0 0 255
0.20543 -0.249288 8.93767 0 0 0 0 0 255
0.197779 -0.245722 8.83803 0 0 0 0 0 255
0.190127 -0.242155 8.73839 0 0 0 0 0 255
0.182475 -0.238589 8.63874 0 0 0 0 0 255
0.174823 -0.235022 8.5391 0 0 0 0 0 255
0.167171 -0.231455 8.43946 0 0 0 0 0 255
0.159519 -0.227889 8.33981 0 0 0 0 0 255
0.151868 -0.224322 8.24017 0 0 0 0 0 255
0.144216 -0.220756 8.14053 0 0 0 0 0 255
0.136564 -0.217189 8.04089 0 0 0 0 0 255
0.128912 -0.213623 7.94124 0 0 0 0 0 255
0.12126 -0.210056 7.8416 0 0 0 0 0 255
0.113608 -0.20649 7.74196 0 0 0 0 0 255
0.105957 -0.202923 7.64231 0 0 0 0 0 255
0.0983047 -0.199356 7.54267 0 0 0 0 0 255
0.0906529 -0.19579 7.44303 0 0 0 0 0 255
0.083001 -0.192223 7.34339 0 0 0 0 0 255
0.0753492 -0.188657 7.24374 0 0 0 0 0 255
0.0676973 -0.18509 7.1441 0 0 0 0 0 255
0.0600455 -0.181524 7.04446 0 0 0 0 0 255
0.0523937 -0.177957 6.94481 0 0 0 0 0 255
0.0447418 -0.17439 6.84517 0 0 0 0 0 255
0.03709 -0.170824 6.74553 0 0 0 0 0 255
0.0294382 -0.167257 6.64588 0 0 0 0 0 255
0.0217863 -0.163691 6.54624 0 0 0 0 0 255
0.0141345 -0.160124 6.4466 0 0 0 0 0 255
0.00648268 -0.156558 6.34696 0 0 0 0 0 255
-0.00116915 -0.152991 6.24731 0 0 0 0 0 255
-0.00882099 -0.149425 6.14767 0 0 0 0 0 255
-0.0164728 -0.145858 6.04803 0 0 0 0 0 255
-0.0241247 -0.142291 5.94838 0 0 0 0 0 255
-0.0317765 -0.138725 5.84874 0 0 0 0 0 255
-0.0394283 -0.135158 5.7491 0 0 0 0 0 255
-0.0470802 -0.131592 5.64946 0 0 0 0 0 255
-0.054732 -0.128025 5.54981 0 0 0 0 0 255
-0.0623838 -0.124459 5.45017 0 0 0 0 0 255
-0.0700357 -0.120892 5.35053 0 0 0 0 0 255
-0.0776875 -0.117325 5.25088 0 0 0 0 0 255
-0.0853393 -0.113759 5.15124 0 0 0 0 0 255
-0.0929912 -0.110192 5.0516 0 0 0 0 0 255
-0.100643 -0.106626 4.95196 0 0 0 0 0 255
-0.108295 -0.103059 4.85231 0 0 0 0 0 255
-0.115947 -0.0994927 4.75267 0 0 0 0 0 255
-0.123598 -0.0959261 4.65303 0 0 0 0 0 255
-0.13125 -0.0923596 4.55338 0 0 0 0 0 255
-0.138902 -0.088793 4.45374 0 0 0 0 0 255
-0.146554 -0.0852264 4.3541 0 0 0 0 0 255
-0.154206 -0.0816599 4.25446 0 0 0 0 0 255
-0.161858 -0.0780933 4.15481 0 0 0 0 0 255
-0.169509 -0.0745268 4.05517 0 0 0 0 0 255
-0.177161 -0.0709602 3.95553 0 0 0 0 0 255
-0.184813 -0.0673936 3.85588 0 0 0 0 0 255
-0.192465 -0.0638271 3.75624 0 0 0 0 0 255
-0.200117 -0.0602605 3.6566 0 0 0 0 0 255
-0.207769 -0.0566939 3.55695 0 0 0 0 0 255
-0.21542 -0.0531274 3.45731 0 0 0 0 0 255
-0.223072 -0.0495608 3.35767 0 0 0 0 0 255
-0.230724 -0.0459943 3.25803 0 0 0 0 0 255
-0.238376 -0.0424277 3.15838 0 0 0 0 0 255
-0.246028 -0.0388611 3.05874 0 0 0 0 0 255
-0.25368 -0.0352946 2.9591 0 0 0 0 0 255
-0.261332 -0.031728 2.85945 0 0 0 0 0 255
-0.268983 -0.0281614 2.75981 0 0 0 0 0 255
-0.276635 -0.0245949 2.66017 0 0 0 0 0 255
-0.284287 -0.0210283 2.56052 0 0 0 0 0 255
-0.291939 -0.0174617 2.46088 0 0 0 0 0 255
-0.299591 -0.0138952 2.36124 0 0 0 0 0 255
-0.307243 -0.0103286 2.2616 0 0 0 0 0 255
-0.314894 -0.00676203 2.16195 0 0 0 0 0 255
-0.322546 -0.00319546 2.06231 0 0 0 0 0 255
-0.330198 0.000371104 1.96267 0 0 0 0 0 255
-0.33785 0.00393767 1.86302 0 0 0 0 0 255
-0.345502 0.00750424 1.76338 0 0 0 0 0 255
-0.353154 0.0110708 1.66374 0 0 0 0 0 255
-0.360805 0.0146374 1.56409 0 0 0 0 0 255
-0.368457 0.0182039 1.46445 0 0 0 0 0 255
-0.376109 0.0217705 1.36481 0 0 0 0 0 255
-0.383761 0.0253371 1.26517 0 0 0 0 0 255
-0.391413 0.0289036 1.16552 0 0 0 0 0 255
-0.399065 0.0324702 1.06588 0 0 0 0 0 255
-0.406717 0.0360368 0.966236 0 0 0 0 0 255
-0.414368 0.0396033 0.866593 0 0 0 0 0 255
-0.42202 0.0431699 0.76695 0 0 0 0 0 255
-0.429672 0.0467365 0.667307 0 0 0 0 0 255
-0.437324 0.050303 0.567664 0 0 0 0 0 255
-0.444976 0.0538696 0.468021 0 0 0 0 0 255
-0.452628 0.0574362 0.368378 0 0 0 0 0 255
-0.460279 0.0610027 0.268735 0 0 0 0 0 255
-0.467931 0.0645693 0.169092 0 0 0 0 0 255
-0.475583 0.0681358 0.0694494 0 0 0 0 0 255
-0.483235 0.0717024 -0.0301937 0 0 0 0 0 255
-0.490887 0.075269 -0.129837 0 0 0 0 0 255
-0.498539 0.0788355 -0.22948 0 0 0 0 0 255
-0.50619 0.0824021 -0.329123 0 0 0 0 0 255
-0.513842 0.0859687 -0.428766 0 0 0 0 0 255
-0.521494 0.0895352 -0.528409 0 0 0 0 0 255
-0.529146 0.0931018 -0.628052 0 0 0 0 0 255
-0.536798 0.0966684 -0.727695 0 0 0 0 0 255
-0.54445 0.100235 -0.827338 0 0 0 0 0 255
-0.552102 0.103802 -0.926981 0 0 0 0 0 255
-0.559753 0.107368 -1.02662 0 0 0 0 0 255
-0.567405 0.110935 -1.12627 0 0 0 0 0 255
-0.575057 0.114501 -1.22591 0 0 0 0 0 255
-0.582709 0.118068 -1.32555 0 0 0 0 0 255
-0.590361 0.121634 -1.4252 0 0 0 0 0 255
-0.598013 0.125201 -1.52484 0 0 0 0 0 255
-0.605664 0.128767 -1.62448 0 0 0 0 0 255
-0.613316 0.132334 -1.72412 0 0 0 0 0 255
-0.620968 0.135901 -1.82377 0 0 0 0 0 255
-0.62862 0.139467 -1.92341 0 0 0 0 0 255
-0.636272 0.143034 -2.02305 0 0 0 0 0 255
-0.643924 0.1466 -2.1227 0 0 0 0 0 255
-0.651575 0.150167 -2.22234 0 0 0 0 0 255
-0.659227 0.153733 -2.32198 0 0 0 0 0 255
-0.666879 0.1573 -2.42162 0 0 0 0 0 255
-0.674531 0.160866 -2.52127 0 0 0 0 0 255
-0.682183 0.164433 -2.62091 0 0 0 0 0 255
-0.689835 0.168 -2.72055 0 0 0 0 0 255
-0.697486 0.171566 -2.8202 0 0 0 0 0 255
-0.705138 0.175133 -2.91984 0 0 0 0 0 255
-0.71279 0.178699 -3.01948 0 0 0 0 0 255
-0.720442 0.182266 -3.11912 0 0 0 0 0 255
-0.728094 0.185832 -3.21877 0 0 0 0 0 255
-0.735746 0.189399 -3.31841 0 0 0 0 0 255
-0.743397 0.192966 -3.41805 0 0 0 0 0 255
-0.751049 0.196532 -3.5177 0 0 0 0 0 255
-0.758701 0.200099 -3.61734 0 0 0 0 0 255
-0.766353 0.203665 -3.71698 0 0 0 0 0 255
-0.774005 0.207232 -3.81663 0 0 0 0 0 255
-0.781657 0.210798 -3.91627 0 0 0 0 0 255
-0.789308 0.214365 -4.01591 0 0 0 0 0 255
-0.79696 0.217931 -4.11555 0 0 0 0 0 255
-0.804612 0.221498 -4.2152 0 0 0 0 0 255
-0.812264 0.225065 -4.31484 0 0 0 0 0 255
-0.819916 0.228631 -4.41448 0 0 0 0 0 255
-0.827568 0.232198 -4.51413 0 0 0 0 0 255
-0.835219 0.235764 -4.61377 0 0 0 0 0 255
-0.842871 0.239331 -4.71341 0 0 0 0 0 255
-0.850523 0.242897 -4.81305 0 0 0 0 0 255
-0.858175 0.246464 -4.9127 0 0 0 0 0 255
-0.865827 0.250031 -5.01234 0 0 0 0 0 255
-0.873479 0.253597 -5.11198 0 0 0 0 0 255
-0.88113 0.257164 -5.21163 0 0 0 0 0 255
-0.888782 0.26073 -5.31127 0 0 0 0 0 255
-0.896434 0.264297 -5.41091 0 0 0 0 0 255
-0.904086 0.267863 -5.51055 0 0 0 0 0 255
-0.911738 0.27143 -5.6102 0 0 0 0 0 255
-0.91939 0.274996 -5.70984 0 0 0 0 0 255
