ply
format ascii 1.0
element vertex 1186
property float x
property float y
property float z
property float nx
property float ny
property float nz
property uchar red
property uchar green
property uchar blue
end_header
-0.566251 0.301017 0.0432124 0 0 0 0 0 0
-0.570824 0.303397 0.0229271 0 0 0 0 0 0
-0.575397 0.305777 0.00264174 0 0 0 0 0 0
-0.57997 0.308156 -0.0176436 0 0 0 0 0 0
-0.584544 0.310536 -0.0379289 0 0 0 0 0 0
-0.589117 0.312916 -0.0582142 0 0 0 0 0 0
-0.59369 0.315296 -0.0784996 0 0 0 0 0 0
-0.598263 0.317675 -0.0987849 0 0 0 0 0 0
-0.602836 0.320055 -0.11907 0 0 0 0 0 0
-0.607409 0.322435 -0.139356 0 0 0 0 0 0
-0.611982 0.324815 -0.159641 0 0 0 0 0 0
-0.616555 0.327195 -0.179926 0 0 0 0 0 0
-0.621128 0.329574 -0.200212 0 0 0 0 0 0
-0.625701 0.331954 -0.220497 0 0 0 0 0 0
-0.630274 0.334334 -0.240782 0 0 0 0 0 0
-0.634847 0.336714 -0.261068 0 0 0 0 0 0
-0.639421 0.339094 -0.281353 0 0 0 0 0 0
-0.643994 0.341473 -0.301638 0 0 0 0 0 0
-0.648567 0.343853 -0.321924 0 0 0 0 0 0
-0.65314 0.346233 -0.342209 0 0 0 0 0 0
-0.657713 0.348613 -0.362494 0 0 0 0 0 0
-0.662286 0.350993 -0.38278 0 0 0 0 0 0
-0.666859 0.353372 -0.403065 0 0 0 0 0 0
-0.671432 0.355752 -0.42335 0 0 0 0 0 0
-0.676005 0.358132 -0.443636 0 0 0 0 0 0
-0.680578 0.360512 -0.463921 0 0 0 0 0 0
-0.685151 0.362892 -0.484206 0 0 0 0 0 0
-0.689724 0.365271 -0.504492 0 0 0 0 0 0
-0.694298 0.367651 -0.524777 0 0 0 0 0 0
-0.698871 0.370031 -0.545062 0 0 0 0 0 0
-0.703444 0.372411 -0.565348 0 0 0 0 0 0
-0.708017 0.37479 -0.585633 0 0 0 0 0 0
-0.71259 0.37717 -0.605918 0 0 0 0 0 0
-0.717163 0.37955 -0.626204 0 0 0 0 0 0
-0.721736 0.38193 -0.646489 0 0 0 0 0 0
-0.726309 0.38431 -0.666774 0 0 0 0 0 0
-0.730882 0.386689 -0.68706 0 0 0 0 0 0
-0.735455 0.389069 -0.707345 0 0 0 0 0 0
-0.740028 0.391449 -0.72763 0 0 0 0 0 0
-0.744601 0.393829 -0.747916 0 0 0 0 0 0
-0.749175 0.396209 -0.768201 0 0 0 0 0 0
-0.753748 0.398588 -0.788487 0 0 0 0 0 0
-0.758321 0.400968 -0.808772 0 0 0 0 0 0
-0.762894 0.403348 -0.829057 0 0 0 0 0 0
-0.767467 0.405728 -0.849343 0 0 0 0 0 0
-0.77204 0.408108 -0.869628 0 0 0 0 0 0
-0.776613 0.410487 -0.889914 0 0 0 0 0 0
-0.781186 0.412867 -0.910199 0 0 0 0 0 0
-0.785759 0.415247 -0.930485 0 0 0 0 0 0
-0.790332 0.417627 -0.95077 0 0 0 0 0 0
-0.794906 0.420007 -0.971055 0 0 0 0 0 0
-0.799479 0.422386 -0.991341 0 0 0 0 0 0
-0.804052 0.424766 -1.01163 0 0 0 0 0 0
-0.808625 0.427146 -1.03191 0 0 0 0 0 0
-0.813198 0.429526 -1.0522 0 0 0 0 0 0
-0.817771 0.431906 -1.07248 0 0 0 0 0 0
1.75823 -0.0849328 2.58039 0 0 0 0 0 0
1.74243 -0.0822157 2.56476 0 0 0 0 0 0
1.72663 -0.0794986 2.54913 0 0 0 0 0 0
1.71083 -0.0767815 2.53351 0 0 0 0 0 0
1.69502 -0.0740644 2.51788 0 0 0 0 0 0
1.67922 -0.0713473 2.50225 0 0 0 0 0 0
1.66342 -0.0686302 2.48662 0 0 0 0 0 0
1.64762 -0.0659131 2.47099 0 0 0 0 0 0
1.63182 -0.0631961 2.45536 0 0 0 0 0 0
1.61602 -0.060479 2.43973 0 0 0 0 0 0
1.60022 -0.0577619 2.4241 0 0 0 0 0 0
1.58442 -0.0550448 2.40848 0 0 0 0 0 0
1.56862 -0.0523277 2.39285 0 0 0 0 0 0
1.55282 -0.0496106 2.37722 0 0 0 0 0 0
1.53702 -0.0468935 2.36159 0 0 0 0 0 0
1.52122 -0.0441764 2.34596 0 0 0 0 0 0
1.50542 -0.0414593 2.33033 0 0 0 0 0 0
1.48962 -0.0387423 2.3147 0 0 0 0 0 0
1.47382 -0.0360252 2.29907 0 0 0 0 0 0
1.45802 -0.0333081 2.28345 0 0 0 0 0 0
1.44222 -0.030591 2.26782 0 0 0 0 0 0
1.42642 -0.0278739 2.25219 0 0 0 0 0 0
1.41062 -0.0251568 2.23656 0 0 0 0 0 0
1.39482 -0.0224398 2.22093 0 0 0 0 0 0
1.37902 -0.0197227 2.2053 0 0 0 0 0 0
1.36322 -0.0170056 2.18967 0 0 0 0 0 0
1.34742 -0.0142885 2.17405 0 0 0 0 0 0
1.33162 -0.0115715 2.15842 0 0 0 0 0 0
1.31582 -0.00885438 2.14279 0 0 0 0 0 0
1.30002 -0.00613731 2.12716 0 0 0 0 0 0
1.28422 -0.00342023 2.11153 0 0 0 0 0 0
1.26842 -0.000703153 2.0959 0 0 0 0 0 0
1.25262 0.00201392 2.08027 0 0 0 0 0 0
1.23682 0.004731 2.06464 0 0 0 0 0 0
1.22102 0.00744808 2.04902 0 0 0 0 0 0
1.20522 0.0101652 2.03339 0 0 0 0 0 0
1.18942 0.0128822 2.01776 0 0 0 0 0 0
1.17362 0.0155993 2.00213 0 0 0 0 0 0
1.15782 0.0183164 1.9865 0 0 0 0 0 0
1.14202 0.0210335 1.97087 0 0 0 0 0 0
1.12622 0.0237505 1.95524 0 0 0 0 0 0
1.11042 0.0264676 1.93962 0 0 0 0 0 0
1.09462 0.0291847 1.92399 0 0 0 0 0 0
1.07882 0.0319018 1.90836 0 0 0 0 0 0
1.06302 0.0346188 1.89273 0 0 0 0 0 0
1.04722 0.0373359 1.8771 0 0 0 0 0 0
1.03142 0.040053 1.86147 0 0 0 0 0 0
1.01562 0.0427701 1.84584 0 0 0 0 0 0
0.999819 0.0454872 1.83021 0 0 0 0 0 0
0.984019 0.0482042 1.81459 0 0 0 0 0 0
0.968218 0.0509213 1.79896 0 0 0 0 0 0
0.952418 0.0536384 1.78333 0 0 0 0 0 0
0.936618 0.0563555 1.7677 0 0 0 0 0 0
0.920818 0.0590725 1.75207 0 0 0 0 0 0
0.905018 0.0617896 1.73644 0 0 0 0 0 0
0.889218 0.0645067 1.72081 0 0 0 0 0 0
0.873418 0.0672238 1.70519 0 0 0 0 0 0
0.857618 0.0699408 1.68956 0 0 0 0 0 0
0.841818 0.0726579 1.67393 0 0 0 0 0 0
0.826017 0.075375 1.6583 0 0 0 0 0 0
0.810217 0.0780921 1.64267 0 0 0 0 0 0
0.794417 0.0808091 1.62704 0 0 0 0 0 0
0.778617 0.0835262 1.61141 0 0 0 0 0 0
0.762817 0.0862433 1.59578 0 0 0 0 0 0
0.747017 0.0889604 1.58016 0 0 0 0 0 0
0.731217 0.0916775 1.56453 0 0 0 0 0 0
0.715417 0.0943945 1.5489 0 0 0 0 0 0
0.699616 0.0971116 1.53327 0 0 0 0 0 0
0.683816 0.0998287 1.51764 0 0 0 0 0 0
0.668016 0.102546 1.50201 0 0 0 0 0 0
0.652216 0.105263 1.48638 0 0 0 0 0 0
0.636416 0.10798 1.47076 0 0 0 0 0 0
0.620616 0.110697 1.45513 0 0 0 0 0 0
0.604816 0.113414 1.4395 0 0 0 0 0 0
0.589016 0.116131 1.42387 0 0 0 0 0 0
0.573216 0.118848 1.40824 0 0 0 0 0 0
0.557415 0.121565 1.39261 0 0 0 0 0 0
0.541615 0.124282 1.37698 0 0 0 0 0 0
0.525815 0.126999 1.36135 0 0 0 0 0 0
0.510015 0.129717 1.34573 0 0 0 0 0 0
0.494215 0.132434 1.3301 0 0 0 0 0 0
0.478415 0.135151 1.31447 0 0 0 0 0 0
0.462615 0.137868 1.29884 0 0 0 0 0 0
0.446815 0.140585 1.28321 0 0 0 0 0 0
0.431014 0.143302 1.26758 0 0 0 0 0 0
0.415214 0.146019 1.25195 0 0 0 0 0 0
0.399414 0.148736 1.23632 0 0 0 0 0 0
0.383614 0.151453 1.2207 0 0 0 0 0 0
0.367814 0.15417 1.20507 0 0 0 0 0 0
0.352014 0.156887 1.18944 0 0 0 0 0 0
0.336214 0.159604 1.17381 0 0 0 0 0 0
0.320413 0.162321 1.15818 0 0 0 0 0 0
0.304613 0.165039 1.14255 0 0 0 0 0 0
0.288813 0.167756 1.12692 0 0 0 0 0 0
0.273013 0.170473 1.1113 0 0 0 0 0 0
0.257213 0.17319 1.09567 0 0 0 0 0 0
0.241413 0.175907 1.08004 0 0 0 0 0 0
0.225613 0.178624 1.06441 0 0 0 0 0 0
0.209813 0.181341 1.04878 0 0 0 0 0 0
0.194012 0.184058 1.03315 0 0 0 0 0 0
0.178212 0.186775 1.01752 0 0 0 0 0 0
0.162412 0.189492 1.00189 0 0 0 0 0 0
0.146612 0.192209 0.986266 0 0 0 0 0 0
0.130812 0.194926 0.970637 0 0 0 0 0 0
0.115012 0.197644 0.955009 0 0 0 0 0 0
0.0992116 0.200361 0.93938 0 0 0 0 0 0
0.0834115 0.203078 0.923751 0 0 0 0 0 0
0.0676114 0.205795 0.908123 0 0 0 0 0 0
0.0518112 0.208512 0.892494 0 0 0 0 0 0
0.0360111 0.211229 0.876865 0 0 0 0 0 0
0.020211 0.213946 0.861237 0 0 0 0 0 0
0.00441084 0.216663 0.845608 0 0 0 0 0 0
-0.0113893 0.21938 0.829979 0 0 0 0 0 0
-0.0271894 0.222097 0.81435 0 0 0 0 0 0
-0.0429896 0.224814 0.798722 0 0 0 0 0 0
-0.0587897 0.227531 0.783093 0 0 0 0 0 0
-0.0745898 0.230248 0.767464 0 0 0 0 0 0
-0.09039 0.232966 0.751836 0 0 0 0 0 0
-0.10619 0.235683 0.736207 0 0 0 0 0 0
-0.12199 0.2384 0.720578 0 0 0 0 0 0
-0.13779 0.241117 0.70495 0 0 0 0 0 0
-0.15359 0.243834 0.689321 0 0 0 0 0 0
-0.169391 0.246551 0.673692 0 0 0 0 0 0
-0.185191 0.249268 0.658064 0 0 0 0 0 0
-0.200991 0.251985 0.642435 0 0 0 0 0 0
-0.216791 0.254702 0.626806 0 0 0 0 0 0
-0.232591 0.257419 0.611178 0 0 0 0 0 0
-0.248391 0.260136 0.595549 0 0 0 0 0 0
-0.264191 0.262853 0.57992 0 0 0 0 0 0
-0.279991 0.26557 0.564292 0 0 0 0 0 0
-0.295792 0.268288 0.548663 0 0 0 0 0 0
-0.311592 0.271005 0.533034 0 0 0 0 0 0
-0.327392 0.273722 0.517406 0 0 0 0 0 0
-0.343192 0.276439 0.501777 0 0 0 0 0 0
-0.358992 0.279156 0.486148 0 0 0 0 0 0
-0.374792 0.281873 0.47052 0 0 0 0 0 0
-0.390592 0.28459 0.454891 0 0 0 0 0 0
-0.406392 0.287307 0.439262 0 0 0 0 0 0
-0.422192 0.290024 0.423634 0 0 0 0 0 0
-0.437993 0.292741 0.408005 0 0 0 0 0 0
-0.453793 0.295458 0.392376 0 0 0 0 0 0
-0.469593 0.298175 0.376748 0 0 0 0 0 0
-0.485393 0.300892 0.361119 0 0 0 0 0 0
-0.501193 0.30361 0.34549 0 0 0 0 0 0
-0.516993 0.306327 0.329862 0 0 0 0 0 0
-0.532793 0.309044 0.314233 0 0 0 0 0 0
-0.548593 0.311761 0.298604 0 0 0 0 0 0
-0.564394 0.314478 0.282976 0 0 0 0 0 0
-0.580194 0.317195 0.267347 0 0 0 0 0 0
-0.595994 0.319912 0.251718 0 0 0 0 0 0
-0.611794 0.322629 0.23609 0 0 0 0 0 0
-0.627594 0.325346 0.220461 0 0 0 0 0 0
-0.643394 0.328063 0.204832 0 0 0 0 0 0
-0.659194 0.33078 0.189204 0 0 0 0 0 0
-0.674994 0.333497 0.173575 0 0 0 0 0 0
-0.690794 0.336214 0.157946 0 0 0 0 0 0
-0.706595 0.338932 0.142318 0 0 0 0 0 0
-0.722395 0.341649 0.126689 0 0 0 0 0 0
-0.738195 0.344366 0.11106 0 0 0 0 0 0
-0.753995 0.347083 0.0954315 0 0 0 0 0 0
-0.769795 0.3498 0.0798029 0 0 0 0 0 0
-0.785595 0.352517 0.0641742 0 0 0 0 0 0
-0.801395 0.355234 0.0485455 0 0 0 0 0 0
-0.817195 0.357951 0.0329168 0 0 0 0 0 0
-0.832995 0.360668 0.0172882 0 0 0 0 0 0
-0.848796 0.363385 0.00165951 0 0 0 0 0 0
-0.864596 0.366102 -0.0139692 0 0 0 0 0 0
-0.880396 0.368819 -0.0295978 0 0 0 0 0 0
-0.896196 0.371536 -0.0452265 0 0 0 0 0 0
-0.911996 0.374254 -0.0608552 0 0 0 0 0 0
-0.927796 0.376971 -0.0764838 0 0 0 0 0 0
-0.943596 0.379688 -0.0921125 0 0 0 0 0 0
-0.959396 0.382405 -0.107741 0 0 0 0 0 0
-0.975197 0.385122 -0.12337 0 0 0 0 0 0
-0.990997 0.387839 -0.138999 0 0 0 0 0 0
-1.0068 0.390556 -0.154627 0 0 0 0 0 0
-1.0226 0.393273 -0.170256 0 0 0 0 0 0
-1.0384 0.39599 -0.185885 0 0 0 0 0 0
-1.0542 0.398707 -0.201513 0 0 0 0 0 0
-1.07 0.401424 -0.217142 0 0 0 0 0 0
-1.0858 0.404141 -0.232771 0 0 0 0 0 0
-1.1016 0.406858 -0.248399 0 0 0 0 0 0
-1.1174 0.409576 -0.264028 0 0 0 0 0 0
-1.1332 0.412293 -0.279657 0 0 0 0 0 0
-1.149 0.41501 -0.295285 0 0 0 0 0 0
-1.1648 0.417727 -0.310914 0 0 0 0 0 0
-1.1806 0.420444 -0.326543 0 0 0 0 0 0
-1.1964 0.423161 -0.342172 0 0 0 0 0 0
-1.2122 0.425878 -0.3578 0 0 0 0 0 0
-1.228 0.428595 -0.373429 0 0 0 0 0 0
-1.2438 0.431312 -0.389058 0 0 0 0 0 0
-1.2596 0.434029 -0.404687 0 0 0 0 0 0
-1.2754 0.436746 -0.420315 0 0 0 0 0 0
-1.2912 0.439464 -0.435944 0 0 0 0 0 0
-1.307 0.442181 -0.451573 0 0 0 0 0 0
-1.3228 0.444898 -0.467202 0 0 0 0 0 0
-1.3386 0.447615 -0.48283 0 0 0 0 0 0
-1.3544 0.450332 -0.498459 0 0 0 0 0 0
-1.3702 0.453049 -0.514088 0 0 0 0 0 0
-1.386 0.455766 -0.529717 0 0 0 0 0 0
-0.562902 -0.25926 3.09203 0 0 0 0 0 0
-0.562225 -0.254944 3.07148 0 0 0 0 0 0
-0.561548 -0.250627 3.05094 0 0 0 0 0 0
-0.560871 -0.246311 3.0304 0 0 0 0 0 0
-0.560194 -0.241995 3.00986 0 0 0 0 0 0
-0.559516 -0.237679 2.98932 0 0 0 0 0 0
-0.558839 -0.233363 2.96878 0 0 0 0 0 0
-0.558162 -0.229047 2.94823 0 0 0 0 0 0
-0.557485 -0.224731 2.92769 0 0 0 0 0 0
-0.556807 -0.220414 2.90715 0 0 0 0 0 0
-0.55613 -0.216098 2.88661 0 0 0 0 0 0
-0.555453 -0.211782 2.86607 0 0 0 0 0 0
-0.554776 -0.207466 2.84552 0 0 0 0 0 0
-0.554099 -0.20315 2.82498 0 0 0 0 0 0
-0.553421 -0.198834 2.80444 0 0 0 0 0 0
-0.552744 -0.194517 2.7839 0 0 0 0 0 0
-0.552067 -0.190201 2.76336 0 0 0 0 0 0
-0.55139 -0.185885 2.74281 0 0 0 0 0 0
-0.550713 -0.181569 2.72227 0 0 0 0 0 0
-0.550035 -0.177253 2.70173 0 0 0 0 0 0
-0.549358 -0.172937 2.68119 0 0 0 0 0 0
-0.548681 -0.168621 2.66065 0 0 0 0 0 0
-0.548004 -0.164305 2.64011 0 0 0 0 0 0
-0.547327 -0.159988 2.61956 0 0 0 0 0 0
-0.546649 -0.155672 2.59902 0 0 0 0 0 0
-0.545972 -0.151356 2.57848 0 0 0 0 0 0
-0.545295 -0.14704 2.55794 0 0 0 0 0 0
-0.544618 -0.142724 2.5374 0 0 0 0 0 0
-0.543941 -0.138408 2.51685 0 0 0 0 0 0
-0.543263 -0.134092 2.49631 0 0 0 0 0 0
-0.542586 -0.129776 2.47577 0 0 0 0 0 0
-0.541909 -0.125459 2.45523 0 0 0 0 0 0
-0.541232 -0.121143 2.43469 0 0 0 0 0 0
-0.540555 -0.116827 2.41415 0 0 0 0 0 0
-0.539877 -0.112511 2.3936 0 0 0 0 0 0
-0.5392 -0.108195 2.37306 0 0 0 0 0 0
-0.538523 -0.103879 2.35252 0 0 0 0 0 0
-0.537846 -0.0995627 2.33198 0 0 0 0 0 0
-0.537169 -0.0952466 2.31144 0 0 0 0 0 0
-0.536491 -0.0909305 2.29089 0 0 0 0 0 0
-0.535814 -0.0866143 2.27035 0 0 0 0 0 0
-0.535137 -0.0822982 2.24981 0 0 0 0 0 0
-0.53446 -0.0779821 2.22927 0 0 0 0 0 0
-0.533783 -0.073666 2.20873 0 0 0 0 0 0
-0.533105 -0.0693498 2.18819 0 0 0 0 0 0
-0.532428 -0.0650337 2.16764 0 0 0 0 0 0
-0.531751 -0.0607176 2.1471 0 0 0 0 0 0
-0.531074 -0.0564015 2.12656 0 0 0 0 0 0
-0.530397 -0.0520854 2.10602 0 0 0 0 0 0
-0.529719 -0.0477692 2.08548 0 0 0 0 0 0
-0.529042 -0.0434531 2.06493 0 0 0 0 0 0
-0.528365 -0.039137 2.04439 0 0 0 0 0 0
-0.527688 -0.0348209 2.02385 0 0 0 0 0 0
-0.52701 -0.0305047 2.00331 0 0 0 0 0 0
-0.526333 -0.0261886 1.98277 0 0 0 0 0 0
-0.525656 -0.0218725 1.96223 0 0 0 0 0 0
-0.524979 -0.0175564 1.94168 0 0 0 0 0 0
-0.524302 -0.0132402 1.92114 0 0 0 0 0 0
-0.523624 -0.00892412 1.9006 0 0 0 0 0 0
-0.522947 -0.004608 1.88006 0 0 0 0 0 0
-0.52227 -0.000291874 1.85952 0 0 0 0 0 0
-0.521593 0.00402425 1.83898 0 0 0 0 0 0
-0.520916 0.00834037 1.81843 0 0 0 0 0 0
-0.520238 0.0126565 1.79789 0 0 0 0 0 0
-0.519561 0.0169726 1.77735 0 0 0 0 0 0
-0.518884 0.0212887 1.75681 0 0 0 0 0 0
-0.518207 0.0256049 1.73627 0 0 0 0 0 0
-0.51753 0.029921 1.71572 0 0 0 0 0 0
-0.516852 0.0342371 1.69518 0 0 0 0 0 0
-0.516175 0.0385532 1.67464 0 0 0 0 0 0
-0.515498 0.0428694 1.6541 0 0 0 0 0 0
-0.514821 0.0471855 1.63356 0 0 0 0 0 0
-0.514144 0.0515016 1.61302 0 0 0 0 0 0
-0.513466 0.0558177 1.59247 0 0 0 0 0 0
-0.512789 0.0601339 1.57193 0 0 0 0 0 0
-0.512112 0.06445 1.55139 0 0 0 0 0 0
-0.511435 0.0687661 1.53085 0 0 0 0 0 0
-0.510758 0.0730822 1.51031 0 0 0 0 0 0
-0.51008 0.0773983 1.48976 0 0 0 0 0 0
-0.509403 0.0817145 1.46922 0 0 0 0 0 0
-0.508726 0.0860306 1.44868 0 0 0 0 0 0
-0.508049 0.0903467 1.42814 0 0 0 0 0 0
-0.507372 0.0946629 1.4076 0 0 0 0 0 0
-0.506694 0.098979 1.38706 0 0 0 0 0 0
-0.506017 0.103295 1.36651 0 0 0 0 0 0
-0.50534 0.107611 1.34597 0 0 0 0 0 0
-0.504663 0.111927 1.32543 0 0 0 0 0 0
-0.503986 0.116243 1.30489 0 0 0 0 0 0
-0.503308 0.12056 1.28435 0 0 0 0 0 0
-0.502631 0.124876 1.2638 0 0 0 0 0 0
-0.501954 0.129192 1.24326 0 0 0 0 0 0
-0.501277 0.133508 1.22272 0 0 0 0 0 0
-0.5006 0.137824 1.20218 0 0 0 0 0 0
-0.499922 0.14214 1.18164 0 0 0 0 0 0
-0.499245 0.146456 1.1611 0 0 0 0 0 0
-0.498568 0.150773 1.14055 0 0 0 0 0 0
-0.497891 0.155089 1.12001 0 0 0 0 0 0
-0.497214 0.159405 1.09947 0 0 0 0 0 0
-0.496536 0.163721 1.07893 0 0 0 0 0 0
-0.495859 0.168037 1.05839 0 0 0 0 0 0
-0.495182 0.172353 1.03784 0 0 0 0 0 0
-0.494505 0.176669 1.0173 0 0 0 0 0 0
-0.493827 0.180985 0.996761 0 0 0 0 0 0
-0.49315 0.185302 0.976219 0 0 0 0 0 0
-0.492473 0.189618 0.955678 0 0 0 0 0 0
-0.491796 0.193934 0.935136 0 0 0 0 0 0
-0.491119 0.19825 0.914594 0 0 0 0 0 0
-0.490441 0.202566 0.894052 0 0 0 0 0 0
-0.489764 0.206882 0.87351 0 0 0 0 0 0
-0.489087 0.211198 0.852969 0 0 0 0 0 0
-0.48841 0.215514 0.832427 0 0 0 0 0 0
-0.487733 0.219831 0.811885 0 0 0 0 0 0
-0.487055 0.224147 0.791343 0 0 0 0 0 0
-0.486378 0.228463 0.770801 0 0 0 0 0 0
-0.485701 0.232779 0.750259 0 0 0 0 0 0
-0.485024 0.237095 0.729718 0 0 0 0 0 0
-0.484347 0.241411 0.709176 0 0 0 0 0 0
-0.483669 0.245727 0.688634 0 0 0 0 0 0
-0.482992 0.250043 0.668092 0 0 0 0 0 0
-0.482315 0.25436 0.64755 0 0 0 0 0 0
-0.481638 0.258676 0.627009 0 0 0 0 0 0
-0.480961 0.262992 0.606467 0 0 0 0 0 0
-0.480283 0.267308 0.585925 0 0 0 0 0 0
-0.479606 0.271624 0.565383 0 0 0 0 0 0
-0.478929 0.27594 0.544841 0 0 0 0 0 0
-0.478252 0.280256 0.5243 0 0 0 0 0 0
-0.477575 0.284572 0.503758 0 0 0 0 0 0
-0.476897 0.288889 0.483216 0 0 0 0 0 0
-0.47622 0.293205 0.462674 0 0 0 0 0 0
-0.475543 0.297521 0.442132 0 0 0 0 0 0
-0.474866 0.301837 0.421591 0 0 0 0 0 0
-0.474189 0.306153 0.401049 0 0 0 0 0 0
-0.473511 0.310469 0.380507 0 0 0 0 0 0
-0.472834 0.314785 0.359965 0 0 0 0 0 0
-0.472157 0.319101 0.339424 0 0 0 0 0 0
-0.47148 0.323418 0.318882 0 0 0 0 0 0
-0.470803 0.327734 0.29834 0 0 0 0 0 0
-0.470125 0.33205 0.277798 0 0 0 0 0 0
-0.469448 0.336366 0.257256 0 0 0 0 0 0
-0.468771 0.340682 0.236715 0 0 0 0 0 0
-0.468094 0.344998 0.216173 0 0 0 0 0 0
-0.467417 0.349314 0.195631 0 0 0 0 0 0
-0.466739 0.35363 0.175089 0 0 0 0 0 0
-0.466062 0.357947 0.154547 0 0 0 0 0 0
-0.465385 0.362263 0.134006 0 0 0 0 0 0
-0.464708 0.366579 0.113464 0 0 0 0 0 0
-0.464031 0.370895 0.092922 0 0 0 0 0 0
-0.463353 0.375211 0.0723802 0 0 0 0 0 0
-0.462676 0.379527 0.0518384 0 0 0 0 0 0
-0.461999 0.383843 0.0312966 0 0 0 0 0 0
-0.461322 0.388159 0.0107548 0 0 0 0 0 0
-0.460645 0.392476 -0.00978699 0 0 0 0 0 0
-0.459967 0.396792 -0.0303288 0 0 0 0 0 0
-0.45929 0.401108 -0.0508706 0 0 0 0 0 0
-0.458613 0.405424 -0.0714124 0 0 0 0 0 0
-0.457936 0.40974 -0.0919542 0 0 0 0 0 0
-0.457258 0.414056 -0.112496 0 0 0 0 0 0
-0.456581 0.418372 -0.133038 0 0 0 0 0 0
-0.455904 0.422688 -0.15358 0 0 0 0 0 0
-0.455227 0.427005 -0.174121 0 0 0 0 0 0
-0.45455 0.431321 -0.194663 0 0 0 0 0 0
-0.453872 0.435637 -0.215205 0 0 0 0 0 0
-0.453195 0.439953 -0.235747 0 0 0 0 0 0
-0.452518 0.444269 -0.256288 0 0 0 0 0 0
-0.451841 0.448585 -0.27683 0 0 0 0 0 0
-0.451164 0.452901 -0.297372 0 0 0 0 0 0
-0.450486 0.457217 -0.317914 0 0 0 0 0 0
-0.449809 0.461534 -0.338456 0 0 0 0 0 0
-0.449132 0.46585 -0.358997 0 0 0 0 0 0
-0.448455 0.470166 -0.379539 0 0 0 0 0 0
-0.447778 0.474482 -0.400081 0 0 0 0 0 0
-0.4471 0.478798 -0.420623 0 0 0 0 0 0
-0.446423 0.483114 -0.441165 0 0 0 0 0 0
-0.445746 0.48743 -0.461706 0 0 0 0 0 0
-0.445069 0.491746 -0.482248 0 0 0 0 0 0
-0.444392 0.496062 -0.50279 0 0 0 0 0 0
-0.443714 0.500379 -0.523332 0 0 0 0 0 0
-0.443037 0.504695 -0.543874 0 0 0 0 0 0
-0.44236 0.509011 -0.564415 0 0 0 0 0 0
-0.441683 0.513327 -0.584957 0 0 0 0 0 0
-0.441006 0.517643 -0.605499 0 0 0 0 0 0
-0.440328 0.521959 -0.626041 0 0 0 0 0 0
-0.439651 0.526275 -0.646583 0 0 0 0 0 0
-0.438974 0.530592 -0.667125 0 0 0 0 0 0
-0.438297 0.534908 -0.687666 0 0 0 0 0 0
-0.43762 0.539224 -0.708208 0 0 0 0 0 0
-0.436942 0.54354 -0.72875 0 0 0 0 0 0
-0.436265 0.547856 -0.749292 0 0 0 0 0 0
-0.435588 0.552172 -0.769834 0 0 0 0 0 0
-0.434911 0.556488 -0.790376 0 0 0 0 0 0
-0.434234 0.560805 -0.810918 0 0 0 0 0 0
-0.433556 0.565121 -0.83146 0 0 0 0 0 0
-0.432879 0.569437 -0.852002 0 0 0 0 0 0
-0.432202 0.573753 -0.872543 0 0 0 0 0 0
-0.431525 0.578069 -0.893085 0 0 0 0 0 0
-0.430848 0.582385 -0.913627 0 0 0 0 0 0
-0.43017 0.586701 -0.934169 0 0 0 0 0 0
-0.429493 0.591018 -0.954711 0 0 0 0 0 0
-0.428816 0.595334 -0.975253 0 0 0 0 0 0
-0.428139 0.59965 -0.995795 0 0 0 0 0 0
-0.795104 0.0342292 2.94392 0 0 0 50 0 0
-0.788458 0.0357354 2.92313 0 0 0 50 0 0
-0.781811 0.0372416 2.90235 0 0 0 50 0 0
-0.775165 0.0387477 2.88157 0 0 0 50 0 0
-0.768518 0.0402539 2.86078 0 0 0 50 0 0
-0.761872 0.0417601 2.84 0 0 0 50 0 0
-0.755225 0.0432663 2.81922 0 0 0 50 0 0
-0.748579 0.0447725 2.79843 0 0 0 50 0 0
-0.741932 0.0462786 2.77765 0 0 0 50 0 0
-0.735286 0.0477848 2.75687 0 0 0 50 0 0
-0.72864 0.049291 2.73608 0 0 0 50 0 0
-0.721993 0.0507972 2.7153 0 0 0 50 0 0
-0.715347 0.0523034 2.69452 0 0 0 50 0 0
-0.7087 0.0538095 2.67373 0 0 0 50 0 0
-0.702054 0.0553157 2.65295 0 0 0 50 0 0
-0.695407 0.0568219 2.63217 0 0 0 50 0 0
-0.688761 0.0583281 2.61138 0 0 0 50 0 0
-0.682114 0.0598343 2.5906 0 0 0 50 0 0
-0.675468 0.0613404 2.56982 0 0 0 50 0 0
-0.668821 0.0628466 2.54904 0 0 0 50 0 0
-0.662175 0.0643528 2.52825 0 0 0 50 0 0
-0.655528 0.065859 2.50747 0 0 0 50 0 0
-0.648882 0.0673651 2.48669 0 0 0 50 0 0
-0.642236 0.0688713 2.4659 0 0 0 50 0 0
-0.635589 0.0703775 2.44512 0 0 0 50 0 0
-0.628943 0.0718836 2.42434 0 0 0 50 0 0
-0.622296 0.0733898 2.40355 0 0 0 50 0 0
-0.61565 0.074896 2.38277 0 0 0 50 0 0
-0.609003 0.0764022 2.36199 0 0 0 50 0 0
-0.602357 0.0779083 2.34121 0 0 0 50 0 0
-0.595711 0.0794145 2.32042 0 0 0 50 0 0
-0.589064 0.0809207 2.29964 0 0 0 50 0 0
-0.582418 0.0824269 2.27886 0 0 0 50 0 0
-0.575771 0.083933 2.25807 0 0 0 50 0 0
-0.569125 0.0854392 2.23729 0 0 0 50 0 0
-0.562478 0.0869454 2.21651 0 0 0 50 0 0
-0.555832 0.0884515 2.19572 0 0 0 50 0 0
-0.549186 0.0899577 2.17494 0 0 0 50 0 0
-0.542539 0.0914639 2.15416 0 0 0 50 0 0
-0.535893 0.0929701 2.13337 0 0 0 50 0 0
-0.529246 0.0944762 2.11259 0 0 0 50 0 0
-0.5226 0.0959824 2.09181 0 0 0 50 0 0
-0.515953 0.0974886 2.07103 0 0 0 50 0 0
-0.509307 0.0989947 2.05024 0 0 0 50 0 0
-0.50266 0.100501 2.02946 0 0 0 50 0 0
-0.496014 0.102007 2.00868 0 0 0 50 0 0
-0.489368 0.103513 1.98789 0 0 0 50 0 0
-0.482721 0.105019 1.96711 0 0 0 50 0 0
-0.476075 0.106526 1.94633 0 0 0 50 0 0
-0.469428 0.108032 1.92554 0 0 0 50 0 0
-0.462782 0.109538 1.90476 0 0 0 50 0 0
-0.456135 0.111044 1.88398 0 0 0 50 0 0
-0.449489 0.11255 1.86319 0 0 0 50 0 0
-0.442843 0.114056 1.84241 0 0 0 50 0 0
-0.436196 0.115563 1.82163 0 0 0 50 0 0
-0.42955 0.117069 1.80085 0 0 0 50 0 0
-0.422903 0.118575 1.78006 0 0 0 50 0 0
-0.416257 0.120081 1.75928 0 0 0 50 0 0
-0.40961 0.121587 1.7385 0 0 0 50 0 0
-0.402964 0.123093 1.71771 0 0 0 50 0 0
-0.396318 0.1246 1.69693 0 0 0 50 0 0
-0.389671 0.126106 1.67615 0 0 0 50 0 0
-0.383025 0.127612 1.65536 0 0 0 50 0 0
-0.376378 0.129118 1.63458 0 0 0 50 0 0
-0.369732 0.130624 1.6138 0 0 0 50 0 0
-0.363085 0.132131 1.59302 0 0 0 50 0 0
-0.356439 0.133637 1.57223 0 0 0 50 0 0
-0.349792 0.135143 1.55145 0 0 0 50 0 0
-0.343146 0.136649 1.53067 0 0 0 50 0 0
-0.3365 0.138155 1.50988 0 0 0 50 0 0
-0.329853 0.139661 1.4891 0 0 0 50 0 0
-0.323207 0.141168 1.46832 0 0 0 50 0 0
-0.31656 0.142674 1.44753 0 0 0 50 0 0
-0.309914 0.14418 1.42675 0 0 0 50 0 0
-0.303267 0.145686 1.40597 0 0 0 50 0 0
-0.296621 0.147192 1.38518 0 0 0 50 0 0
-0.289975 0.148698 1.3644 0 0 0 50 0 0
-0.283328 0.150205 1.34362 0 0 0 50 0 0
-0.276682 0.151711 1.32284 0 0 0 50 0 0
-0.270035 0.153217 1.30205 0 0 0 50 0 0
-0.263389 0.154723 1.28127 0 0 0 50 0 0
-0.256742 0.156229 1.26049 0 0 0 50 0 0
-0.250096 0.157735 1.2397 0 0 0 50 0 0
-0.243449 0.159242 1.21892 0 0 0 50 0 0
-0.236803 0.160748 1.19814 0 0 0 50 0 0
-0.230157 0.162254 1.17735 0 0 0 50 0 0
-0.22351 0.16376 1.15657 0 0 0 50 0 0
-0.216864 0.165266 1.13579 0 0 0 50 0 0
-0.210217 0.166773 1.115 0 0 0 50 0 0
-0.203571 0.168279 1.09422 0 0 0 50 0 0
-0.196924 0.169785 1.07344 0 0 0 50 0 0
-0.190278 0.171291 1.05266 0 0 0 50 0 0
-0.183632 0.172797 1.03187 0 0 0 50 0 0
-0.176985 0.174303 1.01109 0 0 0 50 0 0
-0.170339 0.17581 0.990306 0 0 0 50 0 0
-0.163692 0.177316 0.969523 0 0 0 50 0 0
-0.157046 0.178822 0.94874 0 0 0 50 0 0
-0.150399 0.180328 0.927957 0 0 0 50 0 0
-0.143753 0.181834 0.907174 0 0 0 50 0 0
-0.137106 0.18334 0.886391 0 0 0 50 0 0
-0.13046 0.184847 0.865608 0 0 0 50 0 0
-0.123814 0.186353 0.844825 0 0 0 50 0 0
-0.117167 0.187859 0.824042 0 0 0 50 0 0
-0.110521 0.189365 0.803259 0 0 0 50 0 0
-0.103874 0.190871 0.782475 0 0 0 50 0 0
-0.0972278 0.192377 0.761692 0 0 0 50 0 0
-0.0905813 0.193884 0.740909 0 0 0 50 0 0
-0.0839349 0.19539 0.720126 0 0 0 50 0 0
-0.0772884 0.196896 0.699343 0 0 0 50 0 0
-0.070642 0.198402 0.67856 0 0 0 50 0 0
-0.0639956 0.199908 0.657777 0 0 0 50 0 0
-0.0573491 0.201415 0.636994 0 0 0 50 0 0
-0.0507027 0.202921 0.616211 0 0 0 50 0 0
-0.0440562 0.204427 0.595428 0 0 0 50 0 0
-0.0374098 0.205933 0.574645 0 0 0 50 0 0
-0.0307633 0.207439 0.553862 0 0 0 50 0 0
-0.0241169 0.208945 0.533079 0 0 0 50 0 0
-0.0174705 0.210452 0.512295 0 0 0 50 0 0
-0.010824 0.211958 0.491512 0 0 0 50 0 0
-0.00417758 0.213464 0.470729 0 0 0 50 0 0
0.00246886 0.21497 0.449946 0 0 0 50 0 0
0.0091153 0.216476 0.429163 0 0 0 50 0 0
0.0157617 0.217982 0.40838 0 0 0 50 0 0
0.0224082 0.219489 0.387597 0 0 0 50 0 0
0.0290546 0.220995 0.366814 0 0 0 50 0 0
0.035701 0.222501 0.346031 0 0 0 50 0 0
0.0423475 0.224007 0.325248 0 0 0 50 0 0
0.0489939 0.225513 0.304465 0 0 0 50 0 0
0.0556403 0.227019 0.283682 0 0 0 50 0 0
0.0622868 0.228526 0.262899 0 0 0 50 0 0
0.0689332 0.230032 0.242116 0 0 0 50 0 0
0.0755796 0.231538 0.221333 0 0 0 50 0 0
0.0822261 0.233044 0.20055 0 0 0 50 0 0
0.0888725 0.23455 0.179767 0 0 0 50 0 0
0.0955189 0.236056 0.158984 0 0 0 50 0 0
0.102165 0.237563 0.1382 0 0 0 50 0 0
0.108812 0.239069 0.117417 0 0 0 50 0 0
0.115458 0.240575 0.0966344 0 0 0 50 0 0
0.122105 0.242081 0.0758513 0 0 0 50 0 0
0.128751 0.243587 0.0550683 0 0 0 50 0 0
0.135398 0.245094 0.0342851 0 0 0 50 0 0
0.142044 0.2466 0.0135021 0 0 0 50 0 0
0.14869 0.248106 -0.00728096 0 0 0 50 0 0
0.155337 0.249612 -0.028064 0 0 0 50 0 0
0.161983 0.251118 -0.0488471 0 0 0 50 0 0
0.16863 0.252624 -0.0696301 0 0 0 50 0 0
0.175276 0.254131 -0.0904132 0 0 0 50 0 0
0.181923 0.255637 -0.111196 0 0 0 50 0 0
0.188569 0.257143 -0.131979 0 0 0 50 0 0
0.195215 0.258649 -0.152762 0 0 0 50 0 0
0.201862 0.260155 -0.173545 0 0 0 50 0 0
0.208508 0.261661 -0.194328 0 0 0 50 0 0
0.215155 0.263168 -0.215111 0 0 0 50 0 0
0.221801 0.264674 -0.235895 0 0 0 50 0 0
0.228448 0.26618 -0.256678 0 0 0 50 0 0
0.235094 0.267686 -0.277461 0 0 0 50 0 0
0.241741 0.269192 -0.298244 0 0 0 50 0 0
0.248387 0.270698 -0.319027 0 0 0 50 0 0
0.255033 0.272205 -0.33981 0 0 0 50 0 0
0.26168 0.273711 -0.360593 0 0 0 50 0 0
0.268326 0.275217 -0.381376 0 0 0 50 0 0
0.274973 0.276723 -0.402159 0 0 0 50 0 0
0.281619 0.278229 -0.422942 0 0 0 50 0 0
0.288266 0.279735 -0.443725 0 0 0 50 0 0
0.294912 0.281242 -0.464508 0 0 0 50 0 0
0.301558 0.282748 -0.485291 0 0 0 50 0 0
0.308205 0.284254 -0.506074 0 0 0 50 0 0
0.314851 0.28576 -0.526857 0 0 0 50 0 0
0.321498 0.287266 -0.54764 0 0 0 50 0 0
0.328144 0.288773 -0.568423 0 0 0 50 0 0
0.334791 0.290279 -0.589206 0 0 0 50 0 0
0.341437 0.291785 -0.609989 0 0 0 50 0 0
0.348083 0.293291 -0.630773 0 0 0 50 0 0
0.35473 0.294797 -0.651556 0 0 0 50 0 0
0.361376 0.296303 -0.672339 0 0 0 50 0 0
0.368023 0.29781 -0.693122 0 0 0 50 0 0
0.374669 0.299316 -0.713905 0 0 0 50 0 0
0.381316 0.300822 -0.734688 0 0 0 50 0 0
0.387962 0.302328 -0.755471 0 0 0 50 0 0
0.394609 0.303834 -0.776254 0 0 0 50 0 0
0.401255 0.30534 -0.797037 0 0 0 50 0 0
0.407901 0.306847 -0.81782 0 0 0 50 0 0
0.414548 0.308353 -0.838603 0 0 0 50 0 0
0.421194 0.309859 -0.859386 0 0 0 50 0 0
0.427841 0.311365 -0.880169 0 0 0 50 0 0
0.434487 0.312871 -0.900953 0 0 0 50 0 0
0.441134 0.314377 -0.921736 0 0 0 50 0 0
0.44778 0.315884 -0.942519 0 0 0 50 0 0
0.454427 0.31739 -0.963302 0 0 0 50 0 0
0.461073 0.318896 -0.984085 0 0 0 50 0 0
0.46772 0.320402 -1.00487 0 0 0 50 0 0
0.474366 0.321908 -1.02565 0 0 0 50 0 0
0.481013 0.323415 -1.04643 0 0 0 50 0 0
0.487659 0.324921 -1.06722 0 0 0 50 0 0
0.494305 0.326427 -1.088 0 0 0 50 0 0
0.500952 0.327933 -1.10878 0 0 0 50 0 0
0.507598 0.329439 -1.12957 0 0 0 50 0 0
0.514245 0.330945 -1.15035 0 0 0 50 0 0
0.520891 0.332452 -1.17113 0 0 0 50 0 0
0.527538 0.333958 -1.19192 0 0 0 50 0 0
1.36033 0.266662 2.68714 0 0 0 50 0 0
1.35025 0.265458 2.66875 0 0 0 50 0 0
1.34018 0.264255 2.65037 0 0 0 50 0 0
1.3301 0.263051 2.63198 0 0 0 50 0 0
1.32002 0.261848 2.61359 0 0 0 50 0 0
1.30995 0.260644 2.5952 0 0 0 50 0 0
1.29987 0.259441 2.57681 0 0 0 50 0 0
1.28979 0.258237 2.55842 0 0 0 50 0 0
1.27972 0.257034 2.54004 0 0 0 50 0 0
1.26964 0.25583 2.52165 0 0 0 50 0 0
1.25957 0.254626 2.50326 0 0 0 50 0 0
1.24949 0.253423 2.48487 0 0 0 50 0 0
1.23941 0.252219 2.46648 0 0 0 50 0 0
1.22934 0.251016 2.44809 0 0 0 50 0 0
1.21926 0.249812 2.42971 0 0 0 50 0 0
1.20918 0.248609 2.41132 0 0 0 50 0 0
1.19911 0.247405 2.39293 0 0 0 50 0 0
1.18903 0.246202 2.37454 0 0 0 50 0 0
1.17896 0.244998 2.35615 0 0 0 50 0 0
1.16888 0.243795 2.33776 0 0 0 50 0 0
1.1588 0.242591 2.31938 0 0 0 50 0 0
1.14873 0.241388 2.30099 0 0 0 50 0 0
1.13865 0.240184 2.2826 0 0 0 50 0 0
1.12857 0.238981 2.26421 0 0 0 50 0 0
1.1185 0.237777 2.24582 0 0 0 50 0 0
1.10842 0.236573 2.22743 0 0 0 50 0 0
1.09835 0.23537 2.20905 0 0 0 50 0 0
1.08827 0.234166 2.19066 0 0 0 50 0 0
1.07819 0.232963 2.17227 0 0 0 50 0 0
1.06812 0.231759 2.15388 0 0 0 50 0 0
1.05804 0.230556 2.13549 0 0 0 50 0 0
1.04796 0.229352 2.1171 0 0 0 50 0 0
1.03789 0.228149 2.09872 0 0 0 50 0 0
1.02781 0.226945 2.08033 0 0 0 50 0 0
1.01773 0.225742 2.06194 0 0 0 50 0 0
1.00766 0.224538 2.04355 0 0 0 50 0 0
0.997582 0.223335 2.02516 0 0 0 50 0 0
0.987506 0.222131 2.00677 0 0 0 50 0 0
0.97743 0.220928 1.98839 0 0 0 50 0 0
0.967354 0.219724 1.97 0 0 0 50 0 0
0.957277 0.218521 1.95161 0 0 0 50 0 0
0.947201 0.217317 1.93322 0 0 0 50 0 0
0.937125 0.216113 1.91483 0 0 0 50 0 0
0.927049 0.21491 1.89645 0 0 0 50 0 0
0.916972 0.213706 1.87806 0 0 0 50 0 0
0.906896 0.212503 1.85967 0 0 0 50 0 0
0.89682 0.211299 1.84128 0 0 0 50 0 0
0.886744 0.210096 1.82289 0 0 0 50 0 0
0.876667 0.208892 1.8045 0 0 0 50 0 0
0.866591 0.207689 1.78612 0 0 0 50 0 0
0.856515 0.206485 1.76773 0 0 0 50 0 0
0.846439 0.205282 1.74934 0 0 0 50 0 0
0.836362 0.204078 1.73095 0 0 0 50 0 0
0.826286 0.202875 1.71256 0 0 0 50 0 0
0.81621 0.201671 1.69417 0 0 0 50 0 0
0.806133 0.200468 1.67579 0 0 0 50 0 0
0.796057 0.199264 1.6574 0 0 0 50 0 0
0.785981 0.198061 1.63901 0 0 0 50 0 0
0.775905 0.196857 1.62062 0 0 0 50 0 0
0.765828 0.195653 1.60223 0 0 0 50 0 0
0.755752 0.19445 1.58384 0 0 0 50 0 0
0.745676 0.193246 1.56546 0 0 0 50 0 0
0.7356 0.192043 1.54707 0 0 0 50 0 0
0.725523 0.190839 1.52868 0 0 0 50 0 0
0.715447 0.189636 1.51029 0 0 0 50 0 0
0.705371 0.188432 1.4919 0 0 0 50 0 0
0.695295 0.187229 1.47351 0 0 0 50 0 0
0.685218 0.186025 1.45513 0 0 0 50 0 0
0.675142 0.184822 1.43674 0 0 0 50 0 0
0.665066 0.183618 1.41835 0 0 0 50 0 0
0.65499 0.182415 1.39996 0 0 0 50 0 0
0.644913 0.181211 1.38157 0 0 0 50 0 0
0.634837 0.180008 1.36319 0 0 0 50 0 0
0.624761 0.178804 1.3448 0 0 0 50 0 0
0.614685 0.177601 1.32641 0 0 0 50 0 0
0.604608 0.176397 1.30802 0 0 0 50 0 0
0.594532 0.175193 1.28963 0 0 0 50 0 0
0.584456 0.17399 1.27124 0 0 0 50 0 0
0.574379 0.172786 1.25286 0 0 0 50 0 0
0.564303 0.171583 1.23447 0 0 0 50 0 0
0.554227 0.170379 1.21608 0 0 0 50 0 0
0.544151 0.169176 1.19769 0 0 0 50 0 0
0.534074 0.167972 1.1793 0 0 0 50 0 0
0.523998 0.166769 1.16091 0 0 0 50 0 0
0.513922 0.165565 1.14253 0 0 0 50 0 0
0.503846 0.164362 1.12414 0 0 0 50 0 0
0.493769 0.163158 1.10575 0 0 0 50 0 0
0.483693 0.161955 1.08736 0 0 0 50 0 0
0.473617 0.160751 1.06897 0 0 0 50 0 0
0.463541 0.159548 1.05058 0 0 0 50 0 0
0.453464 0.158344 1.0322 0 0 0 50 0 0
0.443388 0.15714 1.01381 0 0 0 50 0 0
0.433312 0.155937 0.995419 0 0 0 50 0 0
0.423235 0.154733 0.977031 0 0 0 50 0 0
0.413159 0.15353 0.958642 0 0 0 50 0 0
0.403083 0.152326 0.940254 0 0 0 50 0 0
0.393007 0.151123 0.921866 0 0 0 50 0 0
0.38293 0.149919 0.903478 0 0 0 50 0 0
0.372854 0.148716 0.885089 0 0 0 50 0 0
0.362778 0.147512 0.866701 0 0 0 50 0 0
0.352702 0.146309 0.848313 0 0 0 50 0 0
0.342625 0.145105 0.829924 0 0 0 50 0 0
0.332549 0.143902 0.811536 0 0 0 50 0 0
0.322473 0.142698 0.793148 0 0 0 50 0 0
0.312396 0.141495 0.774759 0 0 0 50 0 0
0.30232 0.140291 0.756371 0 0 0 50 0 0
0.292244 0.139088 0.737983 0 0 0 50 0 0
0.282168 0.137884 0.719595 0 0 0 50 0 0
0.272091 0.13668 0.701206 0 0 0 50 0 0
0.262015 0.135477 0.682818 0 0 0 50 0 0
0.251939 0.134273 0.66443 0 0 0 50 0 0
0.241863 0.13307 0.646041 0 0 0 50 0 0
0.231786 0.131866 0.627653 0 0 0 50 0 0
0.22171 0.130663 0.609265 0 0 0 50 0 0
0.211634 0.129459 0.590876 0 0 0 50 0 0
0.201557 0.128256 0.572488 0 0 0 50 0 0
0.191481 0.127052 0.5541 0 0 0 50 0 0
0.181405 0.125849 0.535712 0 0 0 50 0 0
0.171329 0.124645 0.517323 0 0 0 50 0 0
0.161252 0.123442 0.498935 0 0 0 50 0 0
0.151176 0.122238 0.480547 0 0 0 50 0 0
0.1411 0.121035 0.462158 0 0 0 50 0 0
0.131024 0.119831 0.44377 0 0 0 50 0 0
0.120947 0.118627 0.425382 0 0 0 50 0 0
0.110871 0.117424 0.406993 0 0 0 50 0 0
0.100795 0.11622 0.388605 0 0 0 50 0 0
0.0907186 0.115017 0.370217 0 0 0 50 0 0
0.0806423 0.113813 0.351829 0 0 0 50 0 0
0.070566 0.11261 0.33344 0 0 0 50 0 0
0.0604898 0.111406 0.315052 0 0 0 50 0 0
0.0504135 0.110203 0.296664 0 0 0 50 0 0
0.0403373 0.108999 0.278275 0 0 0 50 0 0
0.030261 0.107796 0.259887 0 0 0 50 0 0
0.0201847 0.106592 0.241499 0 0 0 50 0 0
0.0101085 0.105389 0.223111 0 0 0 50 0 0
3.22187e-05 0.104185 0.204722 0 0 0 50 0 0
-0.010044 0.102982 0.186334 0 0 0 50 0 0
-0.0201203 0.101778 0.167946 0 0 0 50 0 0
-0.0301966 0.100575 0.149558 0 0 0 50 0 0
-0.0402728 0.099371 0.131169 0 0 0 50 0 0
-0.0503491 0.0981675 0.112781 0 0 0 50 0 0
-0.0604254 0.096964 0.0943926 0 0 0 50 0 0
-0.0705016 0.0957604 0.0760043 0 0 0 50 0 0
-0.0805779 0.0945569 0.057616 0 0 0 50 0 0
-0.0906541 0.0933534 0.0392278 0 0 0 50 0 0
-0.10073 0.0921498 0.0208395 0 0 0 50 0 0
-0.110807 0.0909463 0.0024512 0 0 0 50 0 0
-0.120883 0.0897428 -0.0159371 0 0 0 50 0 0
-0.130959 0.0885392 -0.0343254 0 0 0 50 0 0
-0.141035 0.0873357 -0.0527137 0 0 0 50 0 0
-0.151112 0.0861322 -0.0711019 0 0 0 50 0 0
-0.161188 0.0849287 -0.0894902 0 0 0 50 0 0
-0.171264 0.0837251 -0.107879 0 0 0 50 0 0
-0.18134 0.0825216 -0.126267 0 0 0 50 0 0
-0.191417 0.0813181 -0.144655 0 0 0 50 0 0
-0.201493 0.0801145 -0.163043 0 0 0 50 0 0
-0.211569 0.078911 -0.181432 0 0 0 50 0 0
-0.221646 0.0777075 -0.19982 0 0 0 50 0 0
-0.231722 0.076504 -0.218208 0 0 0 50 0 0
-0.241798 0.0753004 -0.236596 0 0 0 50 0 0
-0.251874 0.0740969 -0.254985 0 0 0 50 0 0
-0.261951 0.0728934 -0.273373 0 0 0 50 0 0
-0.272027 0.0716898 -0.291761 0 0 0 50 0 0
-0.282103 0.0704863 -0.31015 0 0 0 50 0 0
-0.292179 0.0692828 -0.328538 0 0 0 50 0 0
-0.302256 0.0680792 -0.346926 0 0 0 50 0 0
-0.312332 0.0668757 -0.365314 0 0 0 50 0 0
-0.322408 0.0656722 -0.383703 0 0 0 50 0 0
-0.332484 0.0644687 -0.402091 0 0 0 50 0 0
-0.342561 0.0632651 -0.420479 0 0 0 50 0 0
-0.352637 0.0620616 -0.438868 0 0 0 50 0 0
-0.362713 0.0608581 -0.457256 0 0 0 50 0 0
-0.372789 0.0596545 -0.475644 0 0 0 50 0 0
-0.382866 0.058451 -0.494032 0 0 0 50 0 0
-0.392942 0.0572475 -0.512421 0 0 0 50 0 0
-0.403018 0.0560439 -0.530809 0 0 0 50 0 0
-0.413094 0.0548404 -0.549197 0 0 0 50 0 0
-0.423171 0.0536369 -0.567586 0 0 0 50 0 0
-0.433247 0.0524334 -0.585974 0 0 0 50 0 0
-0.443323 0.0512298 -0.604362 0 0 0 50 0 0
-0.4534 0.0500263 -0.62275 0 0 0 50 0 0
-0.463476 0.0488228 -0.641139 0 0 0 50 0 0
-0.473552 0.0476192 -0.659527 0 0 0 50 0 0
-0.483628 0.0464157 -0.677915 0 0 0 50 0 0
-0.493705 0.0452122 -0.696304 0 0 0 50 0 0
-0.503781 0.0440086 -0.714692 0 0 0 50 0 0
-0.513857 0.0428051 -0.733081 0 0 0 50 0 0
-0.523934 0.0416015 -0.751469 0 0 0 50 0 0
-0.53401 0.040398 -0.769857 0 0 0 50 0 0
-0.544086 0.0391945 -0.788246 0 0 0 50 0 0
-0.554163 0.0379909 -0.806634 0 0 0 50 0 0
-0.564239 0.0367874 -0.825022 0 0 0 50 0 0
-0.574315 0.0355839 -0.843411 0 0 0 50 0 0
-0.584391 0.0343803 -0.861799 0 0 0 50 0 0
-0.594468 0.0331768 -0.880188 0 0 0 50 0 0
-0.604544 0.0319733 -0.898576 0 0 0 50 0 0
-0.61462 0.0307697 -0.916964 0 0 0 50 0 0
-0.624697 0.0295662 -0.935353 0 0 0 50 0 0
-0.634773 0.0283627 -0.953741 0 0 0 50 0 0
-0.644849 0.0271591 -0.972129 0 0 0 50 0 0
-1.33579 -0.183532 3.46473 0 0 0 50 0 0
-1.32529 -0.180028 3.43959 0 0 0 50 0 0
-1.31479 -0.176524 3.41446 0 0 0 50 0 0
-1.3043 -0.17302 3.38932 0 0 0 50 0 0
-1.2938 -0.169516 3.36419 0 0 0 50 0 0
-1.2833 -0.166012 3.33906 0 0 0 50 0 0
-1.2728 -0.162508 3.31392 0 0 0 50 0 0
-1.26231 -0.159004 3.28879 0 0 0 50 0 0
-1.25181 -0.1555 3.26365 0 0 0 50 0 0
-1.24131 -0.151996 3.23852 0 0 0 50 0 0
-1.23082 -0.148492 3.21338 0 0 0 50 0 0
-1.22032 -0.144988 3.18825 0 0 0 50 0 0
-1.20982 -0.141484 3.16312 0 0 0 50 0 0
-1.19933 -0.13798 3.13798 0 0 0 50 0 0
-1.18883 -0.134476 3.11285 0 0 0 50 0 0
-1.17833 -0.130972 3.08771 0 0 0 50 0 0
-1.16784 -0.127468 3.06258 0 0 0 50 0 0
-1.15734 -0.123964 3.03745 0 0 0 50 0 0
-1.14684 -0.12046 3.01231 0 0 0 50 0 0
-1.13634 -0.116956 2.98718 0 0 0 50 0 0
-1.12585 -0.113452 2.96204 0 0 0 50 0 0
-1.11535 -0.109948 2.93691 0 0 0 50 0 0
-1.10485 -0.106444 2.91177 0 0 0 50 0 0
-1.09436 -0.10294 2.88664 0 0 0 50 0 0
-1.08386 -0.0994365 2.86151 0 0 0 50 0 0
-1.07336 -0.0959326 2.83637 0 0 0 50 0 0
-1.06287 -0.0924286 2.81124 0 0 0 50 0 0
-1.05237 -0.0889247 2.7861 0 0 0 50 0 0
-1.04187 -0.0854207 2.76097 0 0 0 50 0 0
-1.03138 -0.0819168 2.73584 0 0 0 50 0 0
-1.02088 -0.0784128 2.7107 0 0 0 50 0 0
-1.01038 -0.0749089 2.68557 0 0 0 50 0 0
-0.999885 -0.0714049 2.66043 0 0 0 50 0 0
-0.989388 -0.067901 2.6353 0 0 0 50 0 0
-0.978891 -0.064397 2.61017 0 0 0 50 0 0
-0.968394 -0.0608931 2.58503 0 0 0 50 0 0
-0.957897 -0.0573891 2.5599 0 0 0 50 0 0
-0.9474 -0.0538852 2.53476 0 0 0 50 0 0
-0.936904 -0.0503812 2.50963 0 0 0 50 0 0
-0.926407 -0.0468773 2.4845 0 0 0 50 0 0
-0.91591 -0.0433734 2.45936 0 0 0 50 0 0
-0.905413 -0.0398694 2.43423 0 0 0 50 0 0
-0.894916 -0.0363655 2.40909 0 0 0 50 0 0
-0.884419 -0.0328615 2.38396 0 0 0 50 0 0
-0.873922 -0.0293576 2.35882 0 0 0 50 0 0
-0.863425 -0.0258536 2.33369 0 0 0 50 0 0
-0.852928 -0.0223497 2.30856 0 0 0 50 0 0
-0.842432 -0.0188457 2.28342 0 0 0 50 0 0
-0.831935 -0.0153418 2.25829 0 0 0 50 0 0
-0.821438 -0.0118378 2.23315 0 0 0 50 0 0
-0.810941 -0.00833389 2.20802 0 0 0 50 0 0
-0.800444 -0.00482994 2.18289 0 0 0 50 0 0
-0.789947 -0.001326 2.15775 0 0 0 50 0 0
-0.77945 0.00217795 2.13262 0 0 0 50 0 0
-0.768953 0.0056819 2.10748 0 0 0 50 0 0
-0.758456 0.00918584 2.08235 0 0 0 50 0 0
-0.747959 0.0126898 2.05722 0 0 0 50 0 0
-0.737463 0.0161937 2.03208 0 0 0 50 0 0
-0.726966 0.0196977 2.00695 0 0 0 50 0 0
-0.716469 0.0232016 1.98181 0 0 0 50 0 0
-0.705972 0.0267056 1.95668 0 0 0 50 0 0
-0.695475 0.0302095 1.93155 0 0 0 50 0 0
-0.684978 0.0337135 1.90641 0 0 0 50 0 0
-0.674481 0.0372174 1.88128 0 0 0 50 0 0
-0.663984 0.0407214 1.85614 0 0 0 50 0 0
-0.653487 0.0442253 1.83101 0 0 0 50 0 0
-0.642991 0.0477293 1.80588 0 0 0 50 0 0
-0.632494 0.0512332 1.78074 0 0 0 50 0 0
-0.621997 0.0547371 1.75561 0 0 0 50 0 0
-0.6115 0.0582411 1.73047 0 0 0 50 0 0
-0.601003 0.061745 1.70534 0 0 0 50 0 0
-0.590506 0.065249 1.6802 0 0 0 50 0 0
-0.580009 0.0687529 1.65507 0 0 0 50 0 0
-0.569512 0.0722569 1.62994 0 0 0 50 0 0
-0.559015 0.0757608 1.6048 0 0 0 50 0 0
-0.548519 0.0792648 1.57967 0 0 0 50 0 0
-0.538022 0.0827687 1.55453 0 0 0 50 0 0
-0.527525 0.0862727 1.5294 0 0 0 50 0 0
-0.517028 0.0897766 1.50427 0 0 0 50 0 0
-0.506531 0.0932806 1.47913 0 0 0 50 0 0
-0.496034 0.0967845 1.454 0 0 0 50 0 0
-0.485537 0.100288 1.42886 0 0 0 50 0 0
-0.47504 0.103792 1.40373 0 0 0 50 0 0
-0.464543 0.107296 1.3786 0 0 0 50 0 0
-0.454046 0.1108 1.35346 0 0 0 50 0 0
-0.44355 0.114304 1.32833 0 0 0 50 0 0
-0.433053 0.117808 1.30319 0 0 0 50 0 0
-0.422556 0.121312 1.27806 0 0 0 50 0 0
-0.412059 0.124816 1.25293 0 0 0 50 0 0
-0.401562 0.12832 1.22779 0 0 0 50 0 0
-0.391065 0.131824 1.20266 0 0 0 50 0 0
-0.380568 0.135328 1.17752 0 0 0 50 0 0
-0.370071 0.138832 1.15239 0 0 0 50 0 0
-0.359574 0.142336 1.12725 0 0 0 50 0 0
-0.349077 0.14584 1.10212 0 0 0 50 0 0
-0.33858 0.149344 1.07699 0 0 0 50 0 0
-0.328084 0.152848 1.05185 0 0 0 50 0 0
-0.317587 0.156352 1.02672 0 0 0 50 0 0
-0.30709 0.159856 1.00158 0 0 0 50 0 0
-0.296593 0.16336 0.97645 0 0 0 50 0 0
-0.286096 0.166864 0.951316 0 0 0 50 0 0
-0.275599 0.170367 0.926182 0 0 0 50 0 0
-0.265102 0.173871 0.901048 0 0 0 50 0 0
-0.254605 0.177375 0.875914 0 0 0 50 0 0
-0.244108 0.180879 0.85078 0 0 0 50 0 0
-0.233611 0.184383 0.825646 0 0 0 50 0 0
-0.223115 0.187887 0.800512 0 0 0 50 0 0
-0.212618 0.191391 0.775377 0 0 0 50 0 0
-0.202121 0.194895 0.750243 0 0 0 50 0 0
-0.191624 0.198399 0.725109 0 0 0 50 0 0
-0.181127 0.201903 0.699975 0 0 0 50 0 0
-0.17063 0.205407 0.674841 0 0 0 50 0 0
-0.160133 0.208911 0.649707 0 0 0 50 0 0
-0.149636 0.212415 0.624573 0 0 0 50 0 0
-0.139139 0.215919 0.599439 0 0 0 50 0 0
-0.128642 0.219423 0.574305 0 0 0 50 0 0
-0.118146 0.222927 0.549171 0 0 0 50 0 0
-0.107649 0.226431 0.524036 0 0 0 50 0 0
-0.0971517 0.229935 0.498902 0 0 0 50 0 0
-0.0866548 0.233439 0.473768 0 0 0 50 0 0
-0.0761579 0.236943 0.448634 0 0 0 50 0 0
-0.065661 0.240446 0.4235 0 0 0 50 0 0
-0.0551641 0.24395 0.398366 0 0 0 50 0 0
-0.0446672 0.247454 0.373232 0 0 0 50 0 0
-0.0341703 0.250958 0.348098 0 0 0 50 0 0
-0.0236734 0.254462 0.322964 0 0 0 50 0 0
-0.0131765 0.257966 0.29783 0 0 0 50 0 0
-0.00267963 0.26147 0.272696 0 0 0 50 0 0
0.00781726 0.264974 0.247561 0 0 0 50 0 0
0.0183142 0.268478 0.222427 0 0 0 50 0 0
0.028811 0.271982 0.197293 0 0 0 50 0 0
0.0393079 0.275486 0.172159 0 0 0 50 0 0
0.0498048 0.27899 0.147025 0 0 0 50 0 0
0.0603017 0.282494 0.121891 0 0 0 50 0 0
0.0707986 0.285998 0.096757 0 0 0 50 0 0
0.0812955 0.289502 0.071623 0 0 0 50 0 0
0.0917924 0.293006 0.0464889 0 0 0 50 0 0
0.102289 0.29651 0.0213548 0 0 0 50 0 0
0.112786 0.300014 -0.00377926 0 0 0 50 0 0
0.123283 0.303518 -0.0289133 0 0 0 50 0 0
0.13378 0.307021 -0.0540475 0 0 0 50 0 0
0.144277 0.310525 -0.0791815 0 0 0 50 0 0
0.154774 0.314029 -0.104316 0 0 0 50 0 0
0.165271 0.317533 -0.12945 0 0 0 50 0 0
0.175768 0.321037 -0.154584 0 0 0 50 0 0
0.186264 0.324541 -0.179718 0 0 0 50 0 0
0.196761 0.328045 -0.204852 0 0 0 50 0 0
0.207258 0.331549 -0.229986 0 0 0 50 0 0
0.217755 0.335053 -0.25512 0 0 0 50 0 0
0.228252 0.338557 -0.280254 0 0 0 50 0 0
0.238749 0.342061 -0.305388 0 0 0 50 0 0
0.249246 0.345565 -0.330522 0 0 0 50 0 0
0.259743 0.349069 -0.355656 0 0 0 50 0 0
0.27024 0.352573 -0.38079 0 0 0 50 0 0
0.280736 0.356077 -0.405925 0 0 0 50 0 0
0.291233 0.359581 -0.431059 0 0 0 50 0 0
0.30173 0.363085 -0.456193 0 0 0 50 0 0
0.312227 0.366589 -0.481327 0 0 0 50 0 0
0.322724 0.370093 -0.506461 0 0 0 50 0 0
0.333221 0.373596 -0.531595 0 0 0 50 0 0
0.343718 0.3771 -0.556729 0 0 0 50 0 0
0.354215 0.380604 -0.581863 0 0 0 50 0 0
0.364712 0.384108 -0.606997 0 0 0 50 0 0
0.375209 0.387612 -0.632131 0 0 0 50 0 0
0.385705 0.391116 -0.657265 0 0 0 50 0 0
0.396202 0.39462 -0.682399 0 0 0 50 0 0
0.406699 0.398124 -0.707533 0 0 0 50 0 0
0.417196 0.401628 -0.732667 0 0 0 50 0 0
0.427693 0.405132 -0.757802 0 0 0 50 0 0
0.43819 0.408636 -0.782936 0 0 0 50 0 0
0.448687 0.41214 -0.80807 0 0 0 50 0 0
0.459184 0.415644 -0.833204 0 0 0 50 0 0
0.469681 0.419148 -0.858338 0 0 0 50 0 0
0.480177 0.422652 -0.883472 0 0 0 50 0 0
0.490674 0.426156 -0.908606 0 0 0 50 0 0
0.501171 0.42966 -0.93374 0 0 0 50 0 0
0.511668 0.433164 -0.958874 0 0 0 50 0 0
0.522165 0.436667 -0.984008 0 0 0 50 0 0
0.532662 0.440171 -1.00914 0 0 0 50 0 0
0.543159 0.443675 -1.03428 0 0 0 50 0 0
0.553656 0.447179 -1.05941 0 0 0 50 0 0
0.564153 0.450683 -1.08454 0 0 0 50 0 0
0.57465 0.454187 -1.10968 0 0 0 50 0 0
0.585146 0.457691 -1.13481 0 0 0 50 0 0
0.595643 0.461195 -1.15995 0 0 0 50 0 0
0.60614 0.464699 -1.18508 0 0 0 50 0 0
0.616637 0.468203 -1.21022 0 0 0 50 0 0
0.627134 0.471707 -1.23535 0 0 0 50 0 0
0.637631 0.475211 -1.26048 0 0 0 50 0 0
0.648128 0.478715 -1.28562 0 0 0 50 0 0
0.658625 0.482219 -1.31075 0 0 0 50 0 0
0.669122 0.485723 -1.33589 0 0 0 50 0 0
0.679619 0.489227 -1.36102 0 0 0 50 0 0
0.690116 0.492731 -1.38615 0 0 0 50 0 0
0.700613 0.496235 -1.41129 0 0 0 50 0 0
0.71111 0.499739 -1.43642 0 0 0 50 0 0
0.721607 0.503243 -1.46156 0 0 0 50 0 0
0.732104 0.506747 -1.48669 0 0 0 50 0 0
0.742601 0.510251 -1.51183 0 0 0 50 0 0
0.753098 0.513755 -1.53696 0 0 0 50 0 0
0.158316 0.313461 3.23919 0 0 0 100 0 0
0.153367 0.310041 3.21638 0 0 0 100 0 0
0.148418 0.306622 3.19358 0 0 0 100 0 0
0.143469 0.303202 3.17077 0 0 0 100 0 0
0.13852 0.299783 3.14796 0 0 0 100 0 0
0.133571 0.296364 3.12516 0 0 0 100 0 0
0.128622 0.292944 3.10235 0 0 0 100 0 0
0.123673 0.289525 3.07955 0 0 0 100 0 0
0.118724 0.286105 3.05674 0 0 0 100 0 0
0.113775 0.282686 3.03393 0 0 0 100 0 0
0.108826 0.279266 3.01113 0 0 0 100 0 0
0.103877 0.275847 2.98832 0 0 0 100 0 0
0.0989281 0.272427 2.96551 0 0 0 100 0 0
0.0939791 0.269008 2.94271 0 0 0 100 0 0
0.0890301 0.265588 2.9199 0 0 0 100 0 0
0.0840811 0.262169 2.89709 0 0 0 100 0 0
0.0791321 0.25875 2.87429 0 0 0 100 0 0
0.0741831 0.25533 2.85148 0 0 0 100 0 0
0.0692341 0.251911 2.82867 0 0 0 100 0 0
0.0642852 0.248491 2.80587 0 0 0 100 0 0
0.0593362 0.245072 2.78306 0 0 0 100 0 0
0.0543872 0.241652 2.76026 0 0 0 100 0 0
0.0494383 0.238233 2.73745 0 0 0 100 0 0
0.0444893 0.234813 2.71464 0 0 0 100 0 0
0.0395403 0.231394 2.69184 0 0 0 100 0 0
0.0345914 0.227975 2.66903 0 0 0 100 0 0
0.0296424 0.224555 2.64622 0 0 0 100 0 0
0.0246934 0.221136 2.62342 0 0 0 100 0 0
0.0197445 0.217716 2.60061 0 0 0 100 0 0
0.0147955 0.214297 2.57781 0 0 0 100 0 0
0.00984656 0.210877 2.555 0 0 0 100 0 0
0.0048976 0.207458 2.53219 0 0 0 100 0 0
-5.13666e-05 0.204038 2.50939 0 0 0 100 0 0
-0.00500033 0.200619 2.48658 0 0 0 100 0 0
-0.00994929 0.1972 2.46377 0 0 0 100 0 0
-0.0148983 0.19378 2.44097 0 0 0 100 0 0
-0.0198472 0.190361 2.41816 0 0 0 100 0 0
-0.0247962 0.186941 2.39535 0 0 0 100 0 0
-0.0297451 0.183522 2.37255 0 0 0 100 0 0
-0.0346941 0.180102 2.34974 0 0 0 100 0 0
-0.0396431 0.176683 2.32694 0 0 0 100 0 0
-0.044592 0.173263 2.30413 0 0 0 100 0 0
-0.049541 0.169844 2.28132 0 0 0 100 0 0
-0.05449 0.166425 2.25852 0 0 0 100 0 0
-0.0594389 0.163005 2.23571 0 0 0 100 0 0
-0.0643879 0.159586 2.2129 0 0 0 100 0 0
-0.0693368 0.156166 2.1901 0 0 0 100 0 0
-0.0742858 0.152747 2.16729 0 0 0 100 0 0
-0.0792348 0.149327 2.14449 0 0 0 100 0 0
-0.0841837 0.145908 2.12168 0 0 0 100 0 0
-0.0891327 0.142489 2.09887 0 0 0 100 0 0
-0.0940817 0.139069 2.07607 0 0 0 100 0 0
-0.0990306 0.13565 2.05326 0 0 0 100 0 0
-0.10398 0.13223 2.03045 0 0 0 100 0 0
-0.108929 0.128811 2.00765 0 0 0 100 0 0
-0.113878 0.125391 1.98484 0 0 0 100 0 0
-0.118826 0.121972 1.96203 0 0 0 100 0 0
-0.123775 0.118552 1.93923 0 0 0 100 0 0
-0.128724 0.115133 1.91642 0 0 0 100 0 0
-0.133673 0.111714 1.89362 0 0 0 100 0 0
-0.138622 0.108294 1.87081 0 0 0 100 0 0
-0.143571 0.104875 1.848 0 0 0 100 0 0
-0.14852 0.101455 1.8252 0 0 0 100 0 0
-0.153469 0.0980358 1.80239 0 0 0 100 0 0
-0.158418 0.0946164 1.77958 0 0 0 100 0 0
-0.163367 0.091197 1.75678 0 0 0 100 0 0
-0.168316 0.0877775 1.73397 0 0 0 100 0 0
-0.173265 0.0843581 1.71116 0 0 0 100 0 0
-0.178214 0.0809386 1.68836 0 0 0 100 0 0
-0.183163 0.0775192 1.66555 0 0 0 100 0 0
-0.188112 0.0740998 1.64275 0 0 0 100 0 0
-0.193061 0.0706803 1.61994 0 0 0 100 0 0
-0.19801 0.0672609 1.59713 0 0 0 100 0 0
-0.202959 0.0638414 1.57433 0 0 0 100 0 0
-0.207908 0.060422 1.55152 0 0 0 100 0 0
-0.212857 0.0570026 1.52871 0 0 0 100 0 0
-0.217806 0.0535831 1.50591 0 0 0 100 0 0
-0.222755 0.0501637 1.4831 0 0 0 100 0 0
-0.227704 0.0467442 1.4603 0 0 0 100 0 0
-0.232653 0.0433248 1.43749 0 0 0 100 0 0
-0.237602 0.0399054 1.41468 0 0 0 100 0 0
-0.242551 0.0364859 1.39188 0 0 0 100 0 0
-0.2475 0.0330665 1.36907 0 0 0 100 0 0
-0.252449 0.029647 1.34626 0 0 0 100 0 0
-0.257397 0.0262276 1.32346 0 0 0 100 0 0
-0.262346 0.0228082 1.30065 0 0 0 100 0 0
-0.267295 0.0193887 1.27784 0 0 0 100 0 0
-0.272244 0.0159693 1.25504 0 0 0 100 0 0
-0.277193 0.0125498 1.23223 0 0 0 100 0 0
-0.282142 0.00913038 1.20943 0 0 0 100 0 0
-0.287091 0.00571094 1.18662 0 0 0 100 0 0
-0.29204 0.00229149 1.16381 0 0 0 100 0 0
-0.296989 -0.00112795 1.14101 0 0 0 100 0 0
-0.301938 -0.00454739 1.1182 0 0 0 100 0 0
-0.306887 -0.00796684 1.09539 0 0 0 100 0 0
-0.311836 -0.0113863 1.07259 0 0 0 100 0 0
-0.316785 -0.0148057 1.04978 0 0 0 100 0 0
-0.321734 -0.0182252 1.02697 0 0 0 100 0 0
-0.326683 -0.0216446 1.00417 0 0 0 100 0 0
-0.331632 -0.025064 0.981362 0 0 0 100 0 0
-0.336581 -0.0284835 0.958556 0 0 0 100 0 0
-0.34153 -0.0319029 0.93575 0 0 0 100 0 0
-0.346479 -0.0353224 0.912943 0 0 0 100 0 0
-0.351428 -0.0387418 0.890137 0 0 0 100 0 0
-0.356377 -0.0421613 0.867331 0 0 0 100 0 0
-0.361326 -0.0455807 0.844524 0 0 0 100 0 0
-0.366275 -0.0490001 0.821718 0 0 0 100 0 0
-0.371224 -0.0524196 0.798912 0 0 0 100 0 0
-0.376173 -0.055839 0.776105 0 0 0 100 0 0
-0.381122 -0.0592585 0.753299 0 0 0 100 0 0
-0.386071 -0.0626779 0.730493 0 0 0 100 0 0
-0.39102 -0.0660974 0.707686 0 0 0 100 0 0
-0.395969 -0.0695168 0.68488 0 0 0 100 0 0
-0.400918 -0.0729362 0.662073 0 0 0 100 0 0
-0.405867 -0.0763557 0.639267 0 0 0 100 0 0
-0.410815 -0.0797751 0.616461 0 0 0 100 0 0
-0.415764 -0.0831946 0.593654 0 0 0 100 0 0
-0.420713 -0.086614 0.570848 0 0 0 100 0 0
-0.425662 -0.0900335 0.548042 0 0 0 100 0 0
-0.430611 -0.0934529 0.525235 0 0 0 100 0 0
-0.43556 -0.0968723 0.502429 0 0 0 100 0 0
-0.440509 -0.100292 0.479623 0 0 0 100 0 0
-0.445458 -0.103711 0.456816 0 0 0 100 0 0
-0.450407 -0.107131 0.43401 0 0 0 100 0 0
-0.455356 -0.11055 0.411204 0 0 0 100 0 0
-0.460305 -0.11397 0.388397 0 0 0 100 0 0
-0.465254 -0.117389 0.365591 0 0 0 100 0 0
-0.470203 -0.120808 0.342785 0 0 0 100 0 0
-0.475152 -0.124228 0.319979 0 0 0 100 0 0
-0.480101 -0.127647 0.297172 0 0 0 100 0 0
