ply
format ascii 1.0
element vertex 1118
property float x
property float y
property float z
property float nx
property float ny
property float nz
property uchar red
property uchar green
property uchar blue
end_header
2.92084 2.03428 -6.16707 0 0 0 0 255 0
2.95979 2.05802 -6.25606 0 0 0 0 255 0
2.99875 2.08176 -6.34505 0 0 0 0 255 0
3.0377 2.10549 -6.43404 0 0 0 0 255 0
3.07665 2.12923 -6.52303 0 0 0 0 255 0
3.11561 2.15297 -6.61202 0 0 0 0 255 0
3.15456 2.1767 -6.70101 0 0 0 0 255 0
3.19351 2.20044 -6.79 0 0 0 0 255 0
3.23247 2.22418 -6.87899 0 0 0 0 255 0
3.27142 2.24792 -6.96798 0 0 0 0 255 0
3.31037 2.27165 -7.05697 0 0 0 0 255 0
3.34933 2.29539 -7.14596 0 0 0 0 255 0
3.38828 2.31913 -7.23495 0 0 0 0 255 0
3.42723 2.34286 -7.32394 0 0 0 0 255 0
3.46619 2.3666 -7.41293 0 0 0 0 255 0
3.50514 2.39034 -7.50192 0 0 0 0 255 0
3.54409 2.41407 -7.59091 0 0 0 0 255 0
3.58305 2.43781 -7.6799 0 0 0 0 255 0
0.129526 0.245812 0.428925 0 0 0 255 255 0
2.649 0.0121651 10.804 0 0 0 0 0 255
2.62139 0.0116467 10.7079 0 0 0 0 0 255
2.59377 0.0111284 10.6118 0 0 0 0 0 255
2.56616 0.01061 10.5157 0 0 0 0 0 255
2.53854 0.0100916 10.4196 0 0 0 0 0 255
2.51092 0.00957322 10.3235 0 0 0 0 0 255
2.48331 0.00905484 10.2274 0 0 0 0 0 255
2.45569 0.00853646 10.1313 0 0 0 0 0 255
2.42808 0.00801808 10.0352 0 0 0 0 0 255
2.40046 0.0074997 9.93904 0 0 0 0 0 255
2.37284 0.00698132 9.84293 0 0 0 0 0 255
2.34523 0.00646294 9.74682 0 0 0 0 0 255
2.31761 0.00594456 9.65071 0 0 0 0 0 255
2.29 0.00542618 9.5546 0 0 0 0 0 255
2.26238 0.0049078 9.45849 0 0 0 0 0 255
2.23476 0.00438943 9.36238 0 0 0 0 0 255
2.20715 0.00387105 9.26627 0 0 0 0 0 255
2.17953 0.00335267 9.17016 0 0 0 0 0 255
2.15192 0.00283429 9.07405 0 0 0 0 0 255
2.1243 0.00231591 8.97794 0 0 0 0 0 255
2.09668 0.00179753 8.88183 0 0 0 0 0 255
2.06907 0.00127915 8.78572 0 0 0 0 0 255
2.04145 0.000760777 8.68961 0 0 0 0 0 255
2.01384 0.0002424 8.5935 0 0 0 0 0 255
1.98622 -0.000275977 8.49739 0 0 0 0 0 255
1.9586 -0.000794354 8.40128 0 0 0 0 0 255
1.93099 -0.00131273 8.30517 0 0 0 0 0 255
1.90337 -0.00183111 8.20906 0 0 0 0 0 255
1.87576 -0.00234948 8.11295 0 0 0 0 0 255
1.84814 -0.00286786 8.01684 0 0 0 0 0 255
1.82052 -0.00338624 7.92073 0 0 0 0 0 255
1.79291 -0.00390462 7.82462 0 0 0 0 0 255
1.76529 -0.00442299 7.72851 0 0 0 0 0 255
1.73768 -0.00494137 7.6324 0 0 0 0 0 255
1.71006 -0.00545975 7.53629 0 0 0 0 0 255
1.68244 -0.00597812 7.44018 0 0 0 0 0 255
1.65483 -0.0064965 7.34408 0 0 0 0 0 255
1.62721 -0.00701488 7.24797 0 0 0 0 0 255
1.5996 -0.00753325 7.15186 0 0 0 0 0 255
1.57198 -0.00805163 7.05575 0 0 0 0 0 255
1.54437 -0.00857001 6.95964 0 0 0 0 0 255
1.51675 -0.00908838 6.86353 0 0 0 0 0 255
1.48913 -0.00960676 6.76742 0 0 0 0 0 255
1.46152 -0.0101251 6.67131 0 0 0 0 0 255
1.4339 -0.0106435 6.5752 0 0 0 0 0 255
1.40629 -0.0111619 6.47909 0 0 0 0 0 255
1.37867 -0.0116803 6.38298 0 0 0 0 0 255
1.35105 -0.0121986 6.28687 0 0 0 0 0 255
1.32344 -0.012717 6.19076 0 0 0 0 0 255
1.29582 -0.0132354 6.09465 0 0 0 0 0 255
1.26821 -0.0137538 5.99854 0 0 0 0 0 255
1.24059 -0.0142722 5.90243 0 0 0 0 0 255
1.21297 -0.0147905 5.80632 0 0 0 0 0 255
1.18536 -0.0153089 5.71021 0 0 0 0 0 255
1.15774 -0.0158273 5.6141 0 0 0 0 0 255
1.13013 -0.0163457 5.51799 0 0 0 0 0 255
1.10251 -0.016864 5.42188 0 0 0 0 0 255
1.07489 -0.0173824 5.32577 0 0 0 0 0 255
1.04728 -0.0179008 5.22966 0 0 0 0 0 255
1.01966 -0.0184192 5.13355 0 0 0 0 0 255
0.992047 -0.0189375 5.03744 0 0 0 0 0 255
0.964431 -0.0194559 4.94133 0 0 0 0 0 255
0.936815 -0.0199743 4.84522 0 0 0 0 0 255
0.909199 -0.0204927 4.74911 0 0 0 0 0 255
0.881583 -0.0210111 4.653 0 0 0 0 0 255
0.853967 -0.0215294 4.55689 0 0 0 0 0 255
0.826351 -0.0220478 4.46078 0 0 0 0 0 255
0.798735 -0.0225662 4.36467 0 0 0 0 0 255
0.771119 -0.0230846 4.26856 0 0 0 0 0 255
0.743504 -0.0236029 4.17246 0 0 0 0 0 255
0.715888 -0.0241213 4.07635 0 0 0 0 0 255
0.688272 -0.0246397 3.98024 0 0 0 0 0 255
0.660656 -0.0251581 3.88413 0 0 0 0 0 255
0.63304 -0.0256764 3.78802 0 0 0 0 0 255
0.605424 -0.0261948 3.69191 0 0 0 0 0 255
0.577808 -0.0267132 3.5958 0 0 0 0 0 255
0.550192 -0.0272316 3.49969 0 0 0 0 0 255
0.522576 -0.02775 3.40358 0 0 0 0 0 255
0.49496 -0.0282683 3.30747 0 0 0 0 0 255
0.467344 -0.0287867 3.21136 0 0 0 0 0 255
0.439728 -0.0293051 3.11525 0 0 0 0 0 255
0.412112 -0.0298235 3.01914 0 0 0 0 0 255
0.384496 -0.0303418 2.92303 0 0 0 0 0 255
0.356881 -0.0308602 2.82692 0 0 0 0 0 255
0.329265 -0.0313786 2.73081 0 0 0 0 0 255
0.301649 -0.031897 2.6347 0 0 0 0 0 255
0.274033 -0.0324153 2.53859 0 0 0 0 0 255
0.246417 -0.0329337 2.44248 0 0 0 0 0 255
0.218801 -0.0334521 2.34637 0 0 0 0 0 255
0.191185 -0.0339705 2.25026 0 0 0 0 0 255
0.163569 -0.0344889 2.15415 0 0 0 0 0 255
0.135953 -0.0350072 2.05804 0 0 0 0 0 255
0.108337 -0.0355256 1.96193 0 0 0 0 0 255
0.080721 -0.036044 1.86582 0 0 0 0 0 255
0.053105 -0.0365624 1.76971 0 0 0 0 0 255
0.0254891 -0.0370807 1.6736 0 0 0 0 0 255
-0.00212686 -0.0375991 1.57749 0 0 0 0 0 255
-0.0297428 -0.0381175 1.48138 0 0 0 0 0 255
-0.0573588 -0.0386359 1.38527 0 0 0 0 0 255
-0.0849747 -0.0391543 1.28916 0 0 0 0 0 255
-0.112591 -0.0396726 1.19305 0 0 0 0 0 255
-0.140207 -0.040191 1.09694 0 0 0 0 0 255
-0.167823 -0.0407094 1.00083 0 0 0 0 0 255
-0.195438 -0.0412278 0.904723 0 0 0 0 0 255
-0.223054 -0.0417461 0.808613 0 0 0 0 0 255
-0.25067 -0.0422645 0.712503 0 0 0 0 0 255
-0.278286 -0.0427829 0.616394 0 0 0 0 0 255
-0.305902 -0.0433013 0.520284 0 0 0 0 0 255
-0.333518 -0.0438197 0.424174 0 0 0 0 0 255
-0.361134 -0.044338 0.328064 0 0 0 0 0 255
-0.38875 -0.0448564 0.231954 0 0 0 0 0 255
-0.416366 -0.0453748 0.135845 0 0 0 0 0 255
-0.443982 -0.0458932 0.0397347 0 0 0 0 0 255
-0.471598 -0.0464115 -0.0563751 0 0 0 0 0 255
-0.499214 -0.0469299 -0.152485 0 0 0 0 0 255
-0.52683 -0.0474483 -0.248595 0 0 0 0 0 255
-0.554446 -0.0479667 -0.344705 0 0 0 0 0 255
-0.582062 -0.0484851 -0.440814 0 0 0 0 0 255
-0.609678 -0.0490034 -0.536924 0 0 0 0 0 255
-0.637294 -0.0495218 -0.633034 0 0 0 0 0 255
-0.66491 -0.0500402 -0.729144 0 0 0 0 0 255
-0.692526 -0.0505586 -0.825253 0 0 0 0 0 255
-0.720141 -0.0510769 -0.921363 0 0 0 0 0 255
-0.747757 -0.0515953 -1.01747 0 0 0 0 0 255
-0.775373 -0.0521137 -1.11358 0 0 0 0 0 255
-0.802989 -0.0526321 -1.20969 0 0 0 0 0 255
-0.830605 -0.0531504 -1.3058 0 0 0 0 0 255
-0.858221 -0.0536688 -1.40191 0 0 0 0 0 255
-0.885837 -0.0541872 -1.49802 0 0 0 0 0 255
-0.913453 -0.0547056 -1.59413 0 0 0 0 0 255
-0.941069 -0.055224 -1.69024 0 0 0 0 0 255
-0.968685 -0.0557423 -1.78635 0 0 0 0 0 255
-0.996301 -0.0562607 -1.88246 0 0 0 0 0 255
-1.02392 -0.0567791 -1.97857 0 0 0 0 0 255
-1.05153 -0.0572975 -2.07468 0 0 0 0 0 255
-1.07915 -0.0578158 -2.17079 0 0 0 0 0 255
-1.10676 -0.0583342 -2.2669 0 0 0 0 0 255
-1.13438 -0.0588526 -2.36301 0 0 0 0 0 255
-1.162 -0.059371 -2.45912 0 0 0 0 0 255
-1.18961 -0.0598893 -2.55523 0 0 0 0 0 255
-1.21723 -0.0604077 -2.65134 0 0 0 0 0 255
-1.24484 -0.0609261 -2.74745 0 0 0 0 0 255
-1.27246 -0.0614445 -2.84356 0 0 0 0 0 255
-1.30008 -0.0619629 -2.93967 0 0 0 0 0 255
-1.32769 -0.0624812 -3.03578 0 0 0 0 0 255
-1.35531 -0.0629996 -3.13189 0 0 0 0 0 255
-1.38292 -0.063518 -3.228 0 0 0 0 0 255
-1.41054 -0.0640364 -3.32411 0 0 0 0 0 255
-1.43816 -0.0645547 -3.42022 0 0 0 0 0 255
-1.46577 -0.0650731 -3.51633 0 0 0 0 0 255
-1.49339 -0.0655915 -3.61243 0 0 0 0 0 255
-1.521 -0.0661099 -3.70854 0 0 0 0 0 255
-1.54862 -0.0666282 -3.80465 0 0 0 0 0 255
-1.57624 -0.0671466 -3.90076 0 0 0 0 0 255
-1.60385 -0.067665 -3.99687 0 0 0 0 0 255
-1.63147 -0.0681834 -4.09298 0 0 0 0 0 255
-1.65908 -0.0687018 -4.18909 0 0 0 0 0 255
-1.6867 -0.0692201 -4.2852 0 0 0 0 0 255
-1.71431 -0.0697385 -4.38131 0 0 0 0 0 255
-1.74193 -0.0702569 -4.47742 0 0 0 0 0 255
-1.76955 -0.0707753 -4.57353 0 0 0 0 0 255
-1.79716 -0.0712936 -4.66964 0 0 0 0 0 255
-1.82478 -0.071812 -4.76575 0 0 0 0 0 255
-1.85239 -0.0723304 -4.86186 0 0 0 0 0 255
-1.88001 -0.0728488 -4.95797 0 0 0 0 0 255
-1.90763 -0.0733671 -5.05408 0 0 0 0 0 255
-1.93524 -0.0738855 -5.15019 0 0 0 0 0 255
-1.96286 -0.0744039 -5.2463 0 0 0 0 0 255
-1.99047 -0.0749223 -5.34241 0 0 0 0 0 255
-2.01809 -0.0754407 -5.43852 0 0 0 0 0 255
-2.04571 -0.075959 -5.53463 0 0 0 0 0 255
-2.07332 -0.0764774 -5.63074 0 0 0 0 0 255
-2.10094 -0.0769958 -5.72685 0 0 0 0 0 255
-2.12855 -0.0775142 -5.82296 0 0 0 0 0 255
-2.15617 -0.0780325 -5.91907 0 0 0 0 0 255
-2.18379 -0.0785509 -6.01518 0 0 0 0 0 255
-2.2114 -0.0790693 -6.11129 0 0 0 0 0 255
-2.23902 -0.0795877 -6.2074 0 0 0 0 0 255
-2.26663 -0.080106 -6.30351 0 0 0 0 0 255
-2.29425 -0.0806244 -6.39962 0 0 0 0 0 255
-2.32186 -0.0811428 -6.49573 0 0 0 0 0 255
-2.34948 -0.0816612 -6.59184 0 0 0 0 0 255
-2.3771 -0.0821796 -6.68795 0 0 0 0 0 255
-2.40471 -0.0826979 -6.78406 0 0 0 0 0 255
-2.43233 -0.0832163 -6.88017 0 0 0 0 0 255
-2.45995 -0.0837347 -6.97628 0 0 0 0 0 255
-2.48756 -0.0842531 -7.07239 0 0 0 0 0 255
-2.51518 -0.0847715 -7.1685 0 0 0 0 0 255
-2.54279 -0.0852898 -7.26461 0 0 0 0 0 255
-2.57041 -0.0858082 -7.36072 0 0 0 0 0 255
-2.59803 -0.0863266 -7.45683 0 0 0 0 0 255
-2.62564 -0.086845 -7.55294 0 0 0 0 0 255
-2.65326 -0.0873633 -7.64905 0 0 0 0 0 255
-2.68087 -0.0878817 -7.74516 0 0 0 0 0 255
-2.70849 -0.0884001 -7.84127 0 0 0 0 0 255
-2.73611 -0.0889185 -7.93738 0 0 0 0 0 255
-2.76372 -0.0894369 -8.03349 0 0 0 0 0 255
-2.79134 -0.0899552 -8.1296 0 0 0 0 0 255
-2.81895 -0.0904736 -8.22571 0 0 0 0 0 255
-2.84657 -0.090992 -8.32182 0 0 0 0 0 255
6.99867 -0.2149 8.12807 0 0 0 0 0 255
6.9301 -0.212198 8.05533 0 0 0 0 0 255
6.86153 -0.209496 7.9826 0 0 0 0 0 255
6.79295 -0.206795 7.90986 0 0 0 0 0 255
6.72438 -0.204093 7.83712 0 0 0 0 0 255
6.65581 -0.201391 7.76438 0 0 0 0 0 255
6.58724 -0.198689 7.69165 0 0 0 0 0 255
6.51867 -0.195987 7.61891 0 0 0 0 0 255
6.4501 -0.193286 7.54617 0 0 0 0 0 255
6.38152 -0.190584 7.47344 0 0 0 0 0 255
6.31295 -0.187882 7.4007 0 0 0 0 0 255
6.24438 -0.18518 7.32796 0 0 0 0 0 255
6.17581 -0.182479 7.25522 0 0 0 0 0 255
6.10724 -0.179777 7.18249 0 0 0 0 0 255
6.03867 -0.177075 7.10975 0 0 0 0 0 255
5.97009 -0.174373 7.03701 0 0 0 0 0 255
5.90152 -0.171672 6.96428 0 0 0 0 0 255
5.83295 -0.16897 6.89154 0 0 0 0 0 255
5.76438 -0.166268 6.8188 0 0 0 0 0 255
5.69581 -0.163566 6.74606 0 0 0 0 0 255
5.62724 -0.160865 6.67333 0 0 0 0 0 255
5.55866 -0.158163 6.60059 0 0 0 0 0 255
5.49009 -0.155461 6.52785 0 0 0 0 0 255
5.42152 -0.152759 6.45512 0 0 0 0 0 255
5.35295 -0.150058 6.38238 0 0 0 0 0 255
5.28438 -0.147356 6.30964 0 0 0 0 0 255
5.21581 -0.144654 6.23691 0 0 0 0 0 255
5.14724 -0.141952 6.16417 0 0 0 0 0 255
5.07866 -0.139251 6.09143 0 0 0 0 0 255
5.01009 -0.136549 6.0187 0 0 0 0 0 255
4.94152 -0.133847 5.94596 0 0 0 0 0 255
4.87295 -0.131145 5.87322 0 0 0 0 0 255
4.80438 -0.128444 5.80049 0 0 0 0 0 255
4.73581 -0.125742 5.72775 0 0 0 0 0 255
4.66724 -0.12304 5.65501 0 0 0 0 0 255
4.59866 -0.120338 5.58228 0 0 0 0 0 255
4.53009 -0.117637 5.50954 0 0 0 0 0 255
4.46152 -0.114935 5.4368 0 0 0 0 0 255
4.39295 -0.112233 5.36406 0 0 0 0 0 255
4.32438 -0.109531 5.29133 0 0 0 0 0 255
4.25581 -0.10683 5.21859 0 0 0 0 0 255
4.18724 -0.104128 5.14585 0 0 0 0 0 255
4.11866 -0.101426 5.07312 0 0 0 0 0 255
4.05009 -0.0987243 5.00038 0 0 0 0 0 255
3.98152 -0.0960225 4.92764 0 0 0 0 0 255
3.91295 -0.0933208 4.85491 0 0 0 0 0 255
3.84438 -0.090619 4.78217 0 0 0 0 0 255
3.77581 -0.0879173 4.70943 0 0 0 0 0 255
3.70724 -0.0852155 4.6367 0 0 0 0 0 255
3.63867 -0.0825138 4.56396 0 0 0 0 0 255
3.57009 -0.079812 4.49122 0 0 0 0 0 255
3.50152 -0.0771103 4.41849 0 0 0 0 0 255
3.43295 -0.0744085 4.34575 0 0 0 0 0 255
3.36438 -0.0717068 4.27301 0 0 0 0 0 255
3.29581 -0.069005 4.20028 0 0 0 0 0 255
3.22724 -0.0663033 4.12754 0 0 0 0 0 255
3.15867 -0.0636015 4.0548 0 0 0 0 0 255
3.09009 -0.0608998 3.98206 0 0 0 0 0 255
3.02152 -0.058198 3.90933 0 0 0 0 0 255
2.95295 -0.0554963 3.83659 0 0 0 0 0 255
2.88438 -0.0527945 3.76385 0 0 0 0 0 255
2.81581 -0.0500928 3.69112 0 0 0 0 0 255
2.74724 -0.047391 3.61838 0 0 0 0 0 255
2.67867 -0.0446893 3.54564 0 0 0 0 0 255
2.61009 -0.0419875 3.47291 0 0 0 0 0 255
2.54152 -0.0392858 3.40017 0 0 0 0 0 255
2.47295 -0.036584 3.32743 0 0 0 0 0 255
2.40438 -0.0338823 3.2547 0 0 0 0 0 255
2.33581 -0.0311805 3.18196 0 0 0 0 0 255
2.26724 -0.0284788 3.10922 0 0 0 0 0 255
2.19867 -0.025777 3.03649 0 0 0 0 0 255
2.13009 -0.0230753 2.96375 0 0 0 0 0 255
2.06152 -0.0203735 2.89101 0 0 0 0 0 255
1.99295 -0.0176718 2.81828 0 0 0 0 0 255
1.92438 -0.01497 2.74554 0 0 0 0 0 255
1.85581 -0.0122683 2.6728 0 0 0 0 0 255
1.78724 -0.0095665 2.60007 0 0 0 0 0 255
1.71867 -0.00686475 2.52733 0 0 0 0 0 255
1.6501 -0.004163 2.45459 0 0 0 0 0 255
1.58152 -0.00146125 2.38185 0 0 0 0 0 255
1.51295 0.00124051 2.30912 0 0 0 0 0 255
1.44438 0.00394226 2.23638 0 0 0 0 0 255
1.37581 0.00664402 2.16364 0 0 0 0 0 255
1.30724 0.00934577 2.09091 0 0 0 0 0 255
1.23867 0.0120475 2.01817 0 0 0 0 0 255
1.17009 0.0147493 1.94543 0 0 0 0 0 255
1.10152 0.017451 1.8727 0 0 0 0 0 255
1.03295 0.0201528 1.79996 0 0 0 0 0 255
0.964381 0.0228545 1.72722 0 0 0 0 0 255
0.895809 0.0255563 1.65449 0 0 0 0 0 255
0.827238 0.028258 1.58175 0 0 0 0 0 255
0.758666 0.0309598 1.50901 0 0 0 0 0 255
0.690095 0.0336616 1.43627 0 0 0 0 0 255
0.621523 0.0363633 1.36354 0 0 0 0 0 255
0.552952 0.0390651 1.2908 0 0 0 0 0 255
0.48438 0.0417668 1.21806 0 0 0 0 0 255
0.415809 0.0444686 1.14533 0 0 0 0 0 255
0.347237 0.0471703 1.07259 0 0 0 0 0 255
0.278666 0.0498721 0.999853 0 0 0 0 0 255
0.210095 0.0525738 0.927116 0 0 0 0 0 255
0.141523 0.0552756 0.854379 0 0 0 0 0 255
0.0729517 0.0579773 0.781643 0 0 0 0 0 255
0.00438021 0.0606791 0.708906 0 0 0 0 0 255
-0.0641912 0.0633808 0.636169 0 0 0 0 0 255
-0.132763 0.0660826 0.563432 0 0 0 0 0 255
-0.201334 0.0687844 0.490695 0 0 0 0 0 255
-0.269906 0.0714861 0.417958 0 0 0 0 0 255
-0.338477 0.0741879 0.345221 0 0 0 0 0 255
-0.407049 0.0768896 0.272484 0 0 0 0 0 255
-0.47562 0.0795914 0.199747 0 0 0 0 0 255
-0.544191 0.0822931 0.12701 0 0 0 0 0 255
-0.612763 0.0849949 0.0542735 0 0 0 0 0 255
-0.681334 0.0876966 -0.0184634 0 0 0 0 0 255
-0.749906 0.0903984 -0.0912004 0 0 0 0 0 255
-0.818477 0.0931001 -0.163937 0 0 0 0 0 255
-0.887049 0.0958019 -0.236674 0 0 0 0 0 255
-0.95562 0.0985036 -0.309411 0 0 0 0 0 255
-1.02419 0.101205 -0.382148 0 0 0 0 0 255
-1.09276 0.103907 -0.454885 0 0 0 0 0 255
-1.16133 0.106609 -0.527622 0 0 0 0 0 255
-1.22991 0.109311 -0.600359 0 0 0 0 0 255
-1.29848 0.112012 -0.673096 0 0 0 0 0 255
-1.36705 0.114714 -0.745832 0 0 0 0 0 255
-1.43562 0.117416 -0.818569 0 0 0 0 0 255
-1.50419 0.120118 -0.891306 0 0 0 0 0 255
-1.57276 0.122819 -0.964043 0 0 0 0 0 255
-1.64133 0.125521 -1.03678 0 0 0 0 0 255
-1.70991 0.128223 -1.10952 0 0 0 0 0 255
-1.77848 0.130925 -1.18225 0 0 0 0 0 255
-1.84705 0.133626 -1.25499 0 0 0 0 0 255
-1.91562 0.136328 -1.32773 0 0 0 0 0 255
-1.98419 0.13903 -1.40046 0 0 0 0 0 255
-2.05276 0.141732 -1.4732 0 0 0 0 0 255
-2.12133 0.144433 -1.54594 0 0 0 0 0 255
-2.18991 0.147135 -1.61867 0 0 0 0 0 255
-2.25848 0.149837 -1.69141 0 0 0 0 0 255
-2.32705 0.152539 -1.76415 0 0 0 0 0 255
-2.39562 0.15524 -1.83688 0 0 0 0 0 255
-2.46419 0.157942 -1.90962 0 0 0 0 0 255
-2.53276 0.160644 -1.98236 0 0 0 0 0 255
-2.60133 0.163346 -2.0551 0 0 0 0 0 255
-2.66991 0.166047 -2.12783 0 0 0 0 0 255
-2.73848 0.168749 -2.20057 0 0 0 0 0 255
-2.80705 0.171451 -2.27331 0 0 0 0 0 255
-2.87562 0.174153 -2.34604 0 0 0 0 0 255
-2.94419 0.176854 -2.41878 0 0 0 0 0 255
-3.01276 0.179556 -2.49152 0 0 0 0 0 255
-3.08133 0.182258 -2.56425 0 0 0 0 0 255
-3.1499 0.18496 -2.63699 0 0 0 0 0 255
-3.21848 0.187661 -2.70973 0 0 0 0 0 255
-3.28705 0.190363 -2.78246 0 0 0 0 0 255
-3.35562 0.193065 -2.8552 0 0 0 0 0 255
-3.42419 0.195767 -2.92794 0 0 0 0 0 255
-3.49276 0.198468 -3.00067 0 0 0 0 0 255
-3.56133 0.20117 -3.07341 0 0 0 0 0 255
-3.6299 0.203872 -3.14615 0 0 0 0 0 255
-3.69848 0.206574 -3.21888 0 0 0 0 0 255
-3.76705 0.209275 -3.29162 0 0 0 0 0 255
-3.83562 0.211977 -3.36436 0 0 0 0 0 255
-3.90419 0.214679 -3.4371 0 0 0 0 0 255
-3.97276 0.217381 -3.50983 0 0 0 0 0 255
-4.04133 0.220082 -3.58257 0 0 0 0 0 255
-4.1099 0.222784 -3.65531 0 0 0 0 0 255
-4.17848 0.225486 -3.72804 0 0 0 0 0 255
-4.24705 0.228188 -3.80078 0 0 0 0 0 255
-4.31562 0.230889 -3.87352 0 0 0 0 0 255
-4.38419 0.233591 -3.94625 0 0 0 0 0 255
-4.45276 0.236293 -4.01899 0 0 0 0 0 255
-4.52133 0.238995 -4.09173 0 0 0 0 0 255
-4.5899 0.241696 -4.16446 0 0 0 0 0 255
-4.65848 0.244398 -4.2372 0 0 0 0 0 255
-4.72705 0.2471 -4.30994 0 0 0 0 0 255
-4.79562 0.249802 -4.38267 0 0 0 0 0 255
-4.86419 0.252503 -4.45541 0 0 0 0 0 255
-4.93276 0.255205 -4.52815 0 0 0 0 0 255
-5.00133 0.257907 -4.60088 0 0 0 0 0 255
-5.0699 0.260609 -4.67362 0 0 0 0 0 255
-5.13848 0.26331 -4.74636 0 0 0 0 0 255
-5.20705 0.266012 -4.8191 0 0 0 0 0 255
-5.27562 0.268714 -4.89183 0 0 0 0 0 255
-5.34419 0.271416 -4.96457 0 0 0 0 0 255
-5.41276 0.274117 -5.03731 0 0 0 0 0 255
-5.48133 0.276819 -5.11004 0 0 0 0 0 255
-5.5499 0.279521 -5.18278 0 0 0 0 0 255
-5.61848 0.282223 -5.25552 0 0 0 0 0 255
-5.68705 0.284925 -5.32825 0 0 0 0 0 255
-5.75562 0.287626 -5.40099 0 0 0 0 0 255
-5.82419 0.290328 -5.47373 0 0 0 0 0 255
-5.89276 0.29303 -5.54647 0 0 0 0 0 255
-5.96133 0.295732 -5.6192 0 0 0 0 0 255
-6.02991 0.298433 -5.69194 0 0 0 0 0 255
-6.09848 0.301135 -5.76468 0 0 0 0 0 255
-6.16705 0.303837 -5.83741 0 0 0 0 0 255
-6.23562 0.306539 -5.91015 0 0 0 0 0 255
-6.30419 0.30924 -5.98289 0 0 0 0 0 255
-6.37276 0.311942 -6.05563 0 0 0 0 0 255
-6.44134 0.314644 -6.12836 0 0 0 0 0 255
-6.50991 0.317346 -6.2011 0 0 0 0 0 255
-6.57848 0.320047 -6.27384 0 0 0 0 0 255
-6.64705 0.322749 -6.34657 0 0 0 0 0 255
-2.02939 0.691942 10.9468 0 0 0 0 0 255
-2.01327 0.684401 10.8483 0 0 0 0 0 255
-1.99714 0.676861 10.7499 0 0 0 0 0 255
-1.98101 0.669321 10.6515 0 0 0 0 0 255
-1.96489 0.661781 10.5531 0 0 0 0 0 255
-1.94876 0.654241 10.4547 0 0 0 0 0 255
-1.93263 0.646701 10.3563 0 0 0 0 0 255
-1.9165 0.63916 10.2579 0 0 0 0 0 255
-1.90038 0.63162 10.1595 0 0 0 0 0 255
-1.88425 0.62408 10.0611 0 0 0 0 0 255
-1.86812 0.61654 9.96272 0 0 0 0 0 255
-1.85199 0.609 9.86432 0 0 0 0 0 255
-1.83587 0.601459 9.76592 0 0 0 0 0 255
-1.81974 0.593919 9.66751 0 0 0 0 0 255
-1.80361 0.586379 9.56911 0 0 0 0 0 255
-1.78749 0.578839 9.47071 0 0 0 0 0 255
-1.77136 0.571299 9.3723 0 0 0 0 0 255
-1.75523 0.563758 9.2739 0 0 0 0 0 255
-1.7391 0.556218 9.1755 0 0 0 0 0 255
-1.72298 0.548678 9.0771 0 0 0 0 0 255
-1.70685 0.541138 8.97869 0 0 0 0 0 255
-1.69072 0.533598 8.88029 0 0 0 0 0 255
-1.6746 0.526058 8.78189 0 0 0 0 0 255
-1.65847 0.518518 8.68349 0 0 0 0 0 255
-1.64234 0.510977 8.58508 0 0 0 0 0 255
-1.62621 0.503437 8.48668 0 0 0 0 0 255
-1.61009 0.495897 8.38828 0 0 0 0 0 255
-1.59396 0.488357 8.28988 0 0 0 0 0 255
-1.57783 0.480817 8.19147 0 0 0 0 0 255
-1.5617 0.473277 8.09307 0 0 0 0 0 255
-1.54558 0.465737 7.99467 0 0 0 0 0 255
-1.52945 0.458196 7.89627 0 0 0 0 0 255
-1.51332 0.450656 7.79786 0 0 0 0 0 255
-1.4972 0.443116 7.69946 0 0 0 0 0 255
-1.48107 0.435576 7.60106 0 0 0 0 0 255
-1.46494 0.428036 7.50266 0 0 0 0 0 255
-1.44881 0.420496 7.40425 0 0 0 0 0 255
-1.43269 0.412955 7.30585 0 0 0 0 0 255
-1.41656 0.405415 7.20745 0 0 0 0 0 255
-1.40043 0.397875 7.10905 0 0 0 0 0 255
-1.38431 0.390335 7.01064 0 0 0 0 0 255
-1.36818 0.382795 6.91224 0 0 0 0 0 255
-1.35205 0.375255 6.81384 0 0 0 0 0 255
-1.33592 0.367715 6.71544 0 0 0 0 0 255
-1.3198 0.360174 6.61704 0 0 0 0 0 255
-1.30367 0.352634 6.51863 0 0 0 0 0 255
-1.28754 0.345094 6.42023 0 0 0 0 0 255
-1.27142 0.337554 6.32183 0 0 0 0 0 255
-1.25529 0.330014 6.22343 0 0 0 0 0 255
-1.23916 0.322474 6.12502 0 0 0 0 0 255
-1.22303 0.314934 6.02662 0 0 0 0 0 255
-1.20691 0.307393 5.92822 0 0 0 0 0 255
-1.19078 0.299853 5.82982 0 0 0 0 0 255
-1.17465 0.292313 5.73141 0 0 0 0 0 255
-1.15853 0.284773 5.63301 0 0 0 0 0 255
-1.1424 0.277233 5.53461 0 0 0 0 0 255
-1.12627 0.269693 5.43621 0 0 0 0 0 255
-1.11014 0.262153 5.3378 0 0 0 0 0 255
-1.09402 0.254612 5.2394 0 0 0 0 0 255
-1.07789 0.247072 5.141 0 0 0 0 0 255
-1.06176 0.239532 5.0426 0 0 0 0 0 255
-1.04563 0.231992 4.94419 0 0 0 0 0 255
-1.02951 0.224452 4.84579 0 0 0 0 0 255
-1.01338 0.216912 4.74739 0 0 0 0 0 255
-0.997253 0.209371 4.64899 0 0 0 0 0 255
-0.981126 0.201831 4.55058 0 0 0 0 0 255
-0.964999 0.194291 4.45218 0 0 0 0 0 255
-0.948872 0.186751 4.35378 0 0 0 0 0 255
-0.932744 0.179211 4.25538 0 0 0 0 0 255
-0.916617 0.171671 4.15697 0 0 0 0 0 255
-0.90049 0.164131 4.05857 0 0 0 0 0 255
-0.884363 0.15659 3.96017 0 0 0 0 0 255
-0.868236 0.14905 3.86177 0 0 0 0 0 255
-0.852108 0.14151 3.76336 0 0 0 0 0 255
-0.835981 0.13397 3.66496 0 0 0 0 0 255
-0.819854 0.12643 3.56656 0 0 0 0 0 255
-0.803727 0.11889 3.46816 0 0 0 0 0 255
-0.7876 0.11135 3.36975 0 0 0 0 0 255
-0.771473 0.103809 3.27135 0 0 0 0 0 255
-0.755345 0.0962693 3.17295 0 0 0 0 0 255
-0.739218 0.0887291 3.07455 0 0 0 0 0 255
-0.723091 0.081189 2.97614 0 0 0 0 0 255
-0.706964 0.0736488 2.87774 0 0 0 0 0 255
-0.690837 0.0661087 2.77934 0 0 0 0 0 255
-0.674709 0.0585685 2.68094 0 0 0 0 0 255
-0.658582 0.0510283 2.58253 0 0 0 0 0 255
-0.642455 0.0434882 2.48413 0 0 0 0 0 255
-0.626328 0.035948 2.38573 0 0 0 0 0 255
-0.6102 0.0284079 2.28733 0 0 0 0 0 255
-0.594073 0.0208677 2.18892 0 0 0 0 0 255
-0.577946 0.0133276 2.09052 0 0 0 0 0 255
-0.561819 0.00578741 1.99212 0 0 0 0 0 255
-0.545692 -0.00175274 1.89372 0 0 0 0 0 255
-0.529564 -0.0092929 1.79531 0 0 0 0 0 255
-0.513437 -0.0168331 1.69691 0 0 0 0 0 255
-0.49731 -0.0243732 1.59851 0 0 0 0 0 255
-0.481183 -0.0319134 1.50011 0 0 0 0 0 255
-0.465056 -0.0394535 1.4017 0 0 0 0 0 255
-0.448928 -0.0469937 1.3033 0 0 0 0 0 255
-0.432801 -0.0545338 1.2049 0 0 0 0 0 255
-0.416674 -0.062074 1.1065 0 0 0 0 0 255
-0.400547 -0.0696141 1.00809 0 0 0 0 0 255
-0.38442 -0.0771543 0.909691 0 0 0 0 0 255
-0.368292 -0.0846944 0.811288 0 0 0 0 0 255
-0.352165 -0.0922346 0.712886 0 0 0 0 0 255
-0.336038 -0.0997748 0.614483 0 0 0 0 0 255
-0.319911 -0.107315 0.516081 0 0 0 0 0 255
-0.303784 -0.114855 0.417678 0 0 0 0 0 255
-0.287656 -0.122395 0.319276 0 0 0 0 0 255
-0.271529 -0.129935 0.220873 0 0 0 0 0 255
-0.255402 -0.137476 0.122471 0 0 0 0 0 255
-0.239275 -0.145016 0.0240681 0 0 0 0 0 255
-0.223148 -0.152556 -0.0743345 0 0 0 0 0 255
-0.20702 -0.160096 -0.172737 0 0 0 0 0 255
-0.190893 -0.167636 -0.27114 0 0 0 0 0 255
-0.174766 -0.175176 -0.369542 0 0 0 0 0 255
-0.158639 -0.182716 -0.467945 0 0 0 0 0 255
-0.142512 -0.190257 -0.566347 0 0 0 0 0 255
-0.126384 -0.197797 -0.66475 0 0 0 0 0 255
-0.110257 -0.205337 -0.763152 0 0 0 0 0 255
-0.0941299 -0.212877 -0.861555 0 0 0 0 0 255
-0.0780027 -0.220417 -0.959957 0 0 0 0 0 255
-0.0618755 -0.227957 -1.05836 0 0 0 0 0 255
-0.0457483 -0.235498 -1.15676 0 0 0 0 0 255
-0.0296211 -0.243038 -1.25516 0 0 0 0 0 255
-0.013494 -0.250578 -1.35357 0 0 0 0 0 255
0.00263323 -0.258118 -1.45197 0 0 0 0 0 255
0.0187604 -0.265658 -1.55037 0 0 0 0 0 255
0.0348876 -0.273198 -1.64877 0 0 0 0 0 255
0.0510148 -0.280738 -1.74718 0 0 0 0 0 255
0.067142 -0.288279 -1.84558 0 0 0 0 0 255
0.0832692 -0.295819 -1.94398 0 0 0 0 0 255
0.0993964 -0.303359 -2.04238 0 0 0 0 0 255
0.115524 -0.310899 -2.14079 0 0 0 0 0 255
0.131651 -0.318439 -2.23919 0 0 0 0 0 255
0.147778 -0.325979 -2.33759 0 0 0 0 0 255
0.163905 -0.333519 -2.43599 0 0 0 0 0 255
0.180032 -0.34106 -2.5344 0 0 0 0 0 255
0.196159 -0.3486 -2.6328 0 0 0 0 0 255
0.212287 -0.35614 -2.7312 0 0 0 0 0 255
0.228414 -0.36368 -2.8296 0 0 0 0 0 255
0.244541 -0.37122 -2.92801 0 0 0 0 0 255
0.260668 -0.37876 -3.02641 0 0 0 0 0 255
0.276795 -0.3863 -3.12481 0 0 0 0 0 255
0.292923 -0.393841 -3.22321 0 0 0 0 0 255
0.30905 -0.401381 -3.32162 0 0 0 0 0 255
0.325177 -0.408921 -3.42002 0 0 0 0 0 255
0.341304 -0.416461 -3.51842 0 0 0 0 0 255
0.357431 -0.424001 -3.61682 0 0 0 0 0 255
0.373559 -0.431541 -3.71523 0 0 0 0 0 255
0.389686 -0.439082 -3.81363 0 0 0 0 0 255
0.405813 -0.446622 -3.91203 0 0 0 0 0 255
0.42194 -0.454162 -4.01043 0 0 0 0 0 255
0.438067 -0.461702 -4.10884 0 0 0 0 0 255
0.454195 -0.469242 -4.20724 0 0 0 0 0 255
0.470322 -0.476782 -4.30564 0 0 0 0 0 255
0.486449 -0.484322 -4.40404 0 0 0 0 0 255
0.502576 -0.491863 -4.50245 0 0 0 0 0 255
0.518703 -0.499403 -4.60085 0 0 0 0 0 255
0.53483 -0.506943 -4.69925 0 0 0 0 0 255
0.550958 -0.514483 -4.79765 0 0 0 0 0 255
0.567085 -0.522023 -4.89606 0 0 0 0 0 255
0.583212 -0.529563 -4.99446 0 0 0 0 0 255
0.599339 -0.537103 -5.09286 0 0 0 0 0 255
0.615466 -0.544644 -5.19126 0 0 0 0 0 255
0.631594 -0.552184 -5.28967 0 0 0 0 0 255
0.647721 -0.559724 -5.38807 0 0 0 0 0 255
0.663848 -0.567264 -5.48647 0 0 0 0 0 255
0.679975 -0.574804 -5.58487 0 0 0 0 0 255
0.696102 -0.582344 -5.68327 0 0 0 0 0 255
0.71223 -0.589884 -5.78168 0 0 0 0 0 255
0.728357 -0.597425 -5.88008 0 0 0 0 0 255
0.744484 -0.604965 -5.97848 0 0 0 0 0 255
0.760611 -0.612505 -6.07688 0 0 0 0 0 255
0.776738 -0.620045 -6.17529 0 0 0 0 0 255
0.792865 -0.627585 -6.27369 0 0 0 0 0 255
0.808993 -0.635125 -6.37209 0 0 0 0 0 255
0.82512 -0.642666 -6.47049 0 0 0 0 0 255
0.841247 -0.650206 -6.5689 0 0 0 0 0 255
0.857374 -0.657746 -6.6673 0 0 0 0 0 255
0.873501 -0.665286 -6.7657 0 0 0 0 0 255
0.889629 -0.672826 -6.8641 0 0 0 0 0 255
0.905756 -0.680366 -6.96251 0 0 0 0 0 255
0.921883 -0.687906 -7.06091 0 0 0 0 0 255
0.93801 -0.695447 -7.15931 0 0 0 0 0 255
0.954138 -0.702987 -7.25772 0 0 0 0 0 255
0.970265 -0.710527 -7.35612 0 0 0 0 0 255
0.986392 -0.718067 -7.45452 0 0 0 0 0 255
1.00252 -0.725607 -7.55292 0 0 0 0 0 255
1.01865 -0.733148 -7.65133 0 0 0 0 0 255
1.03477 -0.740688 -7.74973 0 0 0 0 0 255
1.0509 -0.748228 -7.84813 0 0 0 0 0 255
1.06703 -0.755768 -7.94654 0 0 0 0 0 255
1.08316 -0.763308 -8.04494 0 0 0 0 0 255
1.09928 -0.770848 -8.14334 0 0 0 0 0 255
1.11541 -0.778389 -8.24174 0 0 0 0 0 255
1.13154 -0.785929 -8.34015 0 0 0 0 0 255
1.14766 -0.793469 -8.43855 0 0 0 0 0 255
1.16379 -0.801009 -8.53695 0 0 0 0 0 255
1.17992 -0.808549 -8.63536 0 0 0 0 0 255
-0.309632 -0.028772 0.411656 0 0 0 255 255 0
-1.79656 -0.306148 10.9836 0 0 0 255 255 255
-1.77765 -0.303024 10.8854 0 0 0 255 255 255
-1.75875 -0.299899 10.7873 0 0 0 255 255 255
-1.73985 -0.296774 10.6891 0 0 0 255 255 255
-1.72095 -0.293649 10.591 0 0 0 255 255 255
-1.70204 -0.290524 10.4928 0 0 0 255 255 255
-1.68314 -0.287399 10.3947 0 0 0 255 255 255
-1.66424 -0.284274 10.2965 0 0 0 255 255 255
-1.64533 -0.28115 10.1984 0 0 0 255 255 255
-1.62643 -0.278025 10.1002 0 0 0 255 255 255
-1.60753 -0.2749 10.0021 0 0 0 255 255 255
-1.58862 -0.271775 9.90393 0 0 0 255 255 255
-1.56972 -0.26865 9.80578 0 0 0 255 255 255
-1.55082 -0.265525 9.70764 0 0 0 255 255 255
-1.53191 -0.2624 9.60949 0 0 0 255 255 255
-1.51301 -0.259276 9.51134 0 0 0 255 255 255
-1.49411 -0.256151 9.41319 0 0 0 255 255 255
-1.47521 -0.253026 9.31505 0 0 0 255 255 255
-1.4563 -0.249901 9.2169 0 0 0 255 255 255
-1.4374 -0.246776 9.11875 0 0 0 255 255 255
-1.4185 -0.243651 9.0206 0 0 0 255 255 255
-1.39959 -0.240527 8.92246 0 0 0 255 255 255
-1.38069 -0.237402 8.82431 0 0 0 255 255 255
-1.36179 -0.234277 8.72616 0 0 0 255 255 255
-1.34288 -0.231152 8.62801 0 0 0 255 255 255
-1.32398 -0.228027 8.52987 0 0 0 255 255 255
-1.30508 -0.224902 8.43172 0 0 0 255 255 255
-1.28618 -0.221778 8.33357 0 0 0 255 255 255
-1.26727 -0.218653 8.23542 0 0 0 255 255 255
-1.24837 -0.215528 8.13728 0 0 0 255 255 255
-1.22947 -0.212403 8.03913 0 0 0 255 255 255
-1.21056 -0.209278 7.94098 0 0 0 255 255 255
-1.19166 -0.206153 7.84284 0 0 0 255 255 255
-1.17276 -0.203029 7.74469 0 0 0 255 255 255
-1.15386 -0.199904 7.64654 0 0 0 255 255 255
-1.13495 -0.196779 7.54839 0 0 0 255 255 255
-1.11605 -0.193654 7.45025 0 0 0 255 255 255
-1.09715 -0.190529 7.3521 0 0 0 255 255 255
-1.07824 -0.187404 7.25395 0 0 0 255 255 255
-1.05934 -0.184279 7.1558 0 0 0 255 255 255
-1.04044 -0.181155 7.05766 0 0 0 255 255 255
-1.02153 -0.17803 6.95951 0 0 0 255 255 255
-1.00263 -0.174905 6.86136 0 0 0 255 255 255
-0.983729 -0.17178 6.76321 0 0 0 255 255 255
-0.964826 -0.168655 6.66507 0 0 0 255 255 255
-0.945923 -0.16553 6.56692 0 0 0 255 255 255
-0.92702 -0.162406 6.46877 0 0 0 255 255 255
-0.908117 -0.159281 6.37063 0 0 0 255 255 255
-0.889214 -0.156156 6.27248 0 0 0 255 255 255
-0.870311 -0.153031 6.17433 0 0 0 255 255 255
-0.851409 -0.149906 6.07618 0 0 0 255 255 255
-0.832506 -0.146781 5.97804 0 0 0 255 255 255
-0.813603 -0.143657 5.87989 0 0 0 255 255 255
-0.7947 -0.140532 5.78174 0 0 0 255 255 255
-0.775797 -0.137407 5.68359 0 0 0 255 255 255
-0.756894 -0.134282 5.58545 0 0 0 255 255 255
-0.737991 -0.131157 5.4873 0 0 0 255 255 255
-0.719088 -0.128032 5.38915 0 0 0 255 255 255
-0.700185 -0.124908 5.291 0 0 0 255 255 255
-0.681282 -0.121783 5.19286 0 0 0 255 255 255
-0.662379 -0.118658 5.09471 0 0 0 255 255 255
-0.643476 -0.115533 4.99656 0 0 0 255 255 255
-0.624573 -0.112408 4.89842 0 0 0 255 255 255
-0.60567 -0.109283 4.80027 0 0 0 255 255 255
-0.586767 -0.106159 4.70212 0 0 0 255 255 255
-0.567864 -0.103034 4.60397 0 0 0 255 255 255
-0.548961 -0.0999089 4.50583 0 0 0 255 255 255
-0.530059 -0.0967841 4.40768 0 0 0 255 255 255
-0.511156 -0.0936593 4.30953 0 0 0 255 255 255
-0.492253 -0.0905344 4.21138 0 0 0 255 255 255
-0.47335 -0.0874096 4.11324 0 0 0 255 255 255
-0.454447 -0.0842848 4.01509 0 0 0 255 255 255
-0.435544 -0.0811599 3.91694 0 0 0 255 255 255
-0.416641 -0.0780351 3.8188 0 0 0 255 255 255
-0.397738 -0.0749102 3.72065 0 0 0 255 255 255
-0.378835 -0.0717854 3.6225 0 0 0 255 255 255
-0.359932 -0.0686606 3.52435 0 0 0 255 255 255
-0.341029 -0.0655357 3.42621 0 0 0 255 255 255
-0.322126 -0.0624109 3.32806 0 0 0 255 255 255
-0.303223 -0.0592861 3.22991 0 0 0 255 255 255
-0.28432 -0.0561612 3.13176 0 0 0 255 255 255
-0.265417 -0.0530364 3.03362 0 0 0 255 255 255
-0.246514 -0.0499116 2.93547 0 0 0 255 255 255
-0.227611 -0.0467867 2.83732 0 0 0 255 255 255
-0.208708 -0.0436619 2.73917 0 0 0 255 255 255
-0.189805 -0.040537 2.64103 0 0 0 255 255 255
-0.170903 -0.0374122 2.54288 0 0 0 255 255 255
-0.152 -0.0342874 2.44473 0 0 0 255 255 255
-0.133097 -0.0311625 2.34658 0 0 0 255 255 255
-0.114194 -0.0280377 2.24844 0 0 0 255 255 255
-0.0952907 -0.0249128 2.15029 0 0 0 255 255 255
-0.0763877 -0.021788 2.05214 0 0 0 255 255 255
-0.0574848 -0.0186632 1.95399 0 0 0 255 255 255
-0.0385818 -0.0155383 1.85585 0 0 0 255 255 255
-0.0196788 -0.0124135 1.7577 0 0 0 255 255 255
-0.000775876 -0.00928864 1.65955 0 0 0 255 255 255
0.0181271 -0.0061638 1.5614 0 0 0 255 255 255
0.03703 -0.00303897 1.46326 0 0 0 255 255 255
0.055933 8.58724e-05 1.36511 0 0 0 255 255 255
0.074836 0.00321071 1.26696 0 0 0 255 255 255
0.0937389 0.00633555 1.16882 0 0 0 255 255 255
0.112642 0.00946039 1.07067 0 0 0 255 255 255
0.131545 0.0125852 0.97252 0 0 0 255 255 255
0.150448 0.0157101 0.874373 0 0 0 255 255 255
0.169351 0.0188349 0.776226 0 0 0 255 255 255
0.188254 0.0219597 0.678078 0 0 0 255 255 255
0.207157 0.0250846 0.579931 0 0 0 255 255 255
0.22606 0.0282094 0.481783 0 0 0 255 255 255
0.244963 0.0313343 0.383636 0 0 0 255 255 255
0.263866 0.0344591 0.285488 0 0 0 255 255 255
0.282768 0.0375839 0.187341 0 0 0 255 255 255
0.301671 0.0407088 0.0891936 0 0 0 255 255 255
0.320574 0.0438336 -0.0089538 0 0 0 255 255 255
0.339477 0.0469585 -0.107101 0 0 0 255 255 255
0.35838 0.0500833 -0.205249 0 0 0 255 255 255
0.377283 0.0532081 -0.303396 0 0 0 255 255 255
0.396186 0.056333 -0.401544 0 0 0 255 255 255
0.415089 0.0594578 -0.499691 0 0 0 255 255 255
0.433992 0.0625827 -0.597838 0 0 0 255 255 255
0.452895 0.0657075 -0.695986 0 0 0 255 255 255
0.471798 0.0688323 -0.794133 0 0 0 255 255 255
0.490701 0.0719572 -0.892281 0 0 0 255 255 255
0.509604 0.075082 -0.990428 0 0 0 255 255 255
0.528507 0.0782068 -1.08858 0 0 0 255 255 255
0.54741 0.0813317 -1.18672 0 0 0 255 255 255
0.566313 0.0844565 -1.28487 0 0 0 255 255 255
0.585216 0.0875813 -1.38302 0 0 0 255 255 255
0.604119 0.0907062 -1.48116 0 0 0 255 255 255
0.623022 0.093831 -1.57931 0 0 0 255 255 255
0.641925 0.0969558 -1.67746 0 0 0 255 255 255
0.660828 0.100081 -1.77561 0 0 0 255 255 255
0.67973 0.103206 -1.87375 0 0 0 255 255 255
0.698633 0.10633 -1.9719 0 0 0 255 255 255
0.717536 0.109455 -2.07005 0 0 0 255 255 255
0.736439 0.11258 -2.1682 0 0 0 255 255 255
0.755342 0.115705 -2.26634 0 0 0 255 255 255
0.774245 0.11883 -2.36449 0 0 0 255 255 255
0.793148 0.121955 -2.46264 0 0 0 255 255 255
0.812051 0.125079 -2.56078 0 0 0 255 255 255
0.830954 0.128204 -2.65893 0 0 0 255 255 255
0.849857 0.131329 -2.75708 0 0 0 255 255 255
0.86876 0.134454 -2.85523 0 0 0 255 255 255
0.887663 0.137579 -2.95337 0 0 0 255 255 255
0.906566 0.140704 -3.05152 0 0 0 255 255 255
0.925469 0.143828 -3.14967 0 0 0 255 255 255
0.944372 0.146953 -3.24782 0 0 0 255 255 255
0.963275 0.150078 -3.34596 0 0 0 255 255 255
0.982178 0.153203 -3.44411 0 0 0 255 255 255
1.00108 0.156328 -3.54226 0 0 0 255 255 255
1.01998 0.159453 -3.64041 0 0 0 255 255 255
1.03889 0.162577 -3.73855 0 0 0 255 255 255
1.05779 0.165702 -3.8367 0 0 0 255 255 255
1.07669 0.168827 -3.93485 0 0 0 255 255 255
1.0956 0.171952 -4.03299 0 0 0 255 255 255
1.1145 0.175077 -4.13114 0 0 0 255 255 255
1.1334 0.178202 -4.22929 0 0 0 255 255 255
1.1523 0.181326 -4.32744 0 0 0 255 255 255
1.17121 0.184451 -4.42558 0 0 0 255 255 255
1.19011 0.187576 -4.52373 0 0 0 255 255 255
1.20901 0.190701 -4.62188 0 0 0 255 255 255
1.22792 0.193826 -4.72003 0 0 0 255 255 255
1.24682 0.196951 -4.81817 0 0 0 255 255 255
1.26572 0.200075 -4.91632 0 0 0 255 255 255
1.28462 0.2032 -5.01447 0 0 0 255 255 255
1.30353 0.206325 -5.11262 0 0 0 255 255 255
1.32243 0.20945 -5.21076 0 0 0 255 255 255
1.34133 0.212575 -5.30891 0 0 0 255 255 255
1.36024 0.2157 -5.40706 0 0 0 255 255 255
1.37914 0.218824 -5.5052 0 0 0 255 255 255
1.39804 0.221949 -5.60335 0 0 0 255 255 255
1.41695 0.225074 -5.7015 0 0 0 255 255 255
1.43585 0.228199 -5.79965 0 0 0 255 255 255
1.45475 0.231324 -5.89779 0 0 0 255 255 255
1.47365 0.234449 -5.99594 0 0 0 255 255 255
1.49256 0.237573 -6.09409 0 0 0 255 255 255
1.51146 0.240698 -6.19224 0 0 0 255 255 255
1.53036 0.243823 -6.29038 0 0 0 255 255 255
1.54927 0.246948 -6.38853 0 0 0 255 255 255
1.56817 0.250073 -6.48668 0 0 0 255 255 255
1.58707 0.253198 -6.58483 0 0 0 255 255 255
1.60597 0.256322 -6.68297 0 0 0 255 255 255
1.62488 0.259447 -6.78112 0 0 0 255 255 255
1.64378 0.262572 -6.87927 0 0 0 255 255 255
1.66268 0.265697 -6.97742 0 0 0 255 255 255
1.68159 0.268822 -7.07556 0 0 0 255 255 255
1.70049 0.271947 -7.17371 0 0 0 255 255 255
1.71939 0.275072 -7.27186 0 0 0 255 255 255
1.7383 0.278196 -7.37001 0 0 0 255 255 255
1.7572 0.281321 -7.46815 0 0 0 255 255 255
1.7761 0.284446 -7.5663 0 0 0 255 255 255
1.795 0.287571 -7.66445 0 0 0 255 255 255
1.81391 0.290696 -7.7626 0 0 0 255 255 255
1.83281 0.293821 -7.86075 0 0 0 255 255 255
1.85171 0.296946 -7.95889 0 0 0 255 255 255
1.87062 0.30007 -8.05704 0 0 0 255 255 255
1.88952 0.303195 -8.15519 0 0 0 255 255 255
1.90842 0.30632 -8.25334 0 0 0 255 255 255
1.92733 0.309445 -8.35148 0 0 0 255 255 255
1.94623 0.31257 -8.44963 0 0 0 255 255 255
1.96513 0.315695 -8.54778 0 0 0 255 255 255
3.00872 2.64084 9.94333 0 0 0 255 255 255
2.98173 2.61449 9.85072 0 0 0 255 255 255
2.95474 2.58815 9.7581 0 0 0 255 255 255
2.92775 2.5618 9.66549 0 0 0 255 255 255
2.90076 2.53545 9.57287 0 0 0 255 255 255
2.87377 2.5091 9.48026 0 0 0 255 255 255
2.84679 2.48275 9.38765 0 0 0 255 255 255
2.8198 2.4564 9.29503 0 0 0 255 255 255
2.79281 2.43005 9.20242 0 0 0 255 255 255
2.76582 2.4037 9.1098 0 0 0 255 255 255
2.73883 2.37735 9.01719 0 0 0 255 255 255
2.71184 2.351 8.92457 0 0 0 255 255 255
2.68485 2.32466 8.83196 0 0 0 255 255 255
2.65786 2.29831 8.73935 0 0 0 255 255 255
2.63087 2.27196 8.64673 0 0 0 255 255 255
2.60388 2.24561 8.55412 0 0 0 255 255 255
2.57689 2.21926 8.4615 0 0 0 255 255 255
2.5499 2.19291 8.36889 0 0 0 255 255 255
2.52291 2.16656 8.27628 0 0 0 255 255 255
2.49592 2.14021 8.18366 0 0 0 255 255 255
2.46894 2.11386 8.09105 0 0 0 255 255 255
2.44195 2.08752 7.99843 0 0 0 255 255 255
2.41496 2.06117 7.90582 0 0 0 255 255 255
2.38797 2.03482 7.81321 0 0 0 255 255 255
2.36098 2.00847 7.72059 0 0 0 255 255 255
2.33399 1.98212 7.62798 0 0 0 255 255 255
2.307 1.95577 7.53536 0 0 0 255 255 255
2.28001 1.92942 7.44275 0 0 0 255 255 255
2.25302 1.90307 7.35014 0 0 0 255 255 255
2.22603 1.87672 7.25752 0 0 0 255 255 255
2.19904 1.85038 7.16491 0 0 0 255 255 255
2.17205 1.82403 7.0723 0 0 0 255 255 255
2.14507 1.79768 6.97968 0 0 0 255 255 255
2.11808 1.77133 6.88707 0 0 0 255 255 255
2.09109 1.74498 6.79445 0 0 0 255 255 255
2.0641 1.71863 6.70184 0 0 0 255 255 255
2.03711 1.69228 6.60923 0 0 0 255 255 255
2.01012 1.66593 6.51661 0 0 0 255 255 255
1.98313 1.63958 6.424 0 0 0 255 255 255
1.95614 1.61324 6.33139 0 0 0 255 255 255
1.92915 1.58689 6.23877 0 0 0 255 255 255
1.90216 1.56054 6.14616 0 0 0 255 255 255
1.87517 1.53419 6.05354 0 0 0 255 255 255
1.84818 1.50784 5.96093 0 0 0 255 255 255
1.8212 1.48149 5.86832 0 0 0 255 255 255
1.79421 1.45514 5.7757 0 0 0 255 255 255
1.76722 1.42879 5.68309 0 0 0 255 255 255
1.74023 1.40244 5.59048 0 0 0 255 255 255
1.71324 1.3761 5.49786 0 0 0 255 255 255
1.68625 1.34975 5.40525 0 0 0 255 255 255
1.65926 1.3234 5.31264 0 0 0 255 255 255
1.63227 1.29705 5.22002 0 0 0 255 255 255
1.60528 1.2707 5.12741 0 0 0 255 255 255
1.57829 1.24435 5.03479 0 0 0 255 255 255
1.5513 1.218 4.94218 0 0 0 255 255 255
1.52431 1.19165 4.84957 0 0 0 255 255 255
1.49733 1.1653 4.75695 0 0 0 255 255 255
1.47034 1.13896 4.66434 0 0 0 255 255 255
1.44335 1.11261 4.57173 0 0 0 255 255 255
1.41636 1.08626 4.47911 0 0 0 255 255 255
1.38937 1.05991 4.3865 0 0 0 255 255 255
1.36238 1.03356 4.29388 0 0 0 255 255 255
1.33539 1.00721 4.20127 0 0 0 255 255 255
1.3084 0.980863 4.10866 0 0 0 255 255 255
1.28141 0.954514 4.01604 0 0 0 255 255 255
1.25442 0.928165 3.92343 0 0 0 255 255 255
1.22743 0.901816 3.83082 0 0 0 255 255 255
1.20044 0.875467 3.7382 0 0 0 255 255 255
1.17346 0.849119 3.64559 0 0 0 255 255 255
1.14647 0.82277 3.55297 0 0 0 255 255 255
1.11948 0.796421 3.46036 0 0 0 255 255 255
1.09249 0.770072 3.36775 0 0 0 255 255 255
1.0655 0.743723 3.27513 0 0 0 255 255 255
1.03851 0.717374 3.18252 0 0 0 255 255 255
1.01152 0.691025 3.08991 0 0 0 255 255 255
0.984531 0.664677 2.99729 0 0 0 255 255 255
0.957542 0.638328 2.90468 0 0 0 255 255 255
0.930552 0.611979 2.81206 0 0 0 255 255 255
0.903563 0.58563 2.71945 0 0 0 255 255 255
0.876574 0.559281 2.62684 0 0 0 255 255 255
0.849585 0.532932 2.53422 0 0 0 255 255 255
0.822596 0.506583 2.44161 0 0 0 255 255 255
0.795606 0.480234 2.349 0 0 0 255 255 255
0.768617 0.453885 2.25638 0 0 0 255 255 255
0.741628 0.427537 2.16377 0 0 0 255 255 255
0.714639 0.401188 2.07115 0 0 0 255 255 255
0.68765 0.374839 1.97854 0 0 0 255 255 255
0.66066 0.34849 1.88593 0 0 0 255 255 255
0.633671 0.322141 1.79331 0 0 0 255 255 255
0.606682 0.295792 1.7007 0 0 0 255 255 255
0.579693 0.269443 1.60808 0 0 0 255 255 255
0.552704 0.243094 1.51547 0 0 0 255 255 255
0.525714 0.216745 1.42286 0 0 0 255 255 255
0.498725 0.190397 1.33024 0 0 0 255 255 255
0.471736 0.164048 1.23763 0 0 0 255 255 255
0.444747 0.137699 1.14502 0 0 0 255 255 255
0.417758 0.11135 1.0524 0 0 0 255 255 255
0.390768 0.085001 0.959788 0 0 0 255 255 255
0.363779 0.0586521 0.867174 0 0 0 255 255 255
0.33679 0.0323032 0.77456 0 0 0 255 255 255
0.309801 0.00595432 0.681946 0 0 0 255 255 255
0.282812 -0.0203946 0.589332 0 0 0 255 255 255
0.255822 -0.0467435 0.496719 0 0 0 255 255 255
0.228833 -0.0730923 0.404105 0 0 0 255 255 255
0.201844 -0.0994412 0.311491 0 0 0 255 255 255
0.174855 -0.12579 0.218877 0 0 0 255 255 255
0.147866 -0.152139 0.126263 0 0 0 255 255 255
0.120876 -0.178488 0.0336494 0 0 0 255 255 255
0.0938872 -0.204837 -0.0589644 0 0 0 255 255 255
0.0668979 -0.231186 -0.151578 0 0 0 255 255 255
0.0399088 -0.257535 -0.244192 0 0 0 255 255 255
0.0129196 -0.283883 -0.336806 0 0 0 255 255 255
-0.0140697 -0.310232 -0.42942 0 0 0 255 255 255
-0.0410589 -0.336581 -0.522034 0 0 0 255 255 255
-0.0680481 -0.36293 -0.614647 0 0 0 255 255 255
-0.0950373 -0.389279 -0.707261 0 0 0 255 255 255
-0.122026 -0.415628 -0.799875 0 0 0 255 255 255
-0.149016 -0.441977 -0.892489 0 0 0 255 255 255
-0.176005 -0.468326 -0.985103 0 0 0 255 255 255
-0.202994 -0.494675 -1.07772 0 0 0 255 255 255
-0.229983 -0.521024 -1.17033 0 0 0 255 255 255
-0.256972 -0.547372 -1.26294 0 0 0 255 255 255
-0.283962 -0.573721 -1.35556 0 0 0 255 255 255
-0.310951 -0.60007 -1.44817 0 0 0 255 255 255
-0.33794 -0.626419 -1.54079 0 0 0 255 255 255
-0.364929 -0.652768 -1.6334 0 0 0 255 255 255
-0.391918 -0.679117 -1.72601 0 0 0 255 255 255
-0.418908 -0.705466 -1.81863 0 0 0 255 255 255
-0.445897 -0.731814 -1.91124 0 0 0 255 255 255
-0.472886 -0.758163 -2.00385 0 0 0 255 255 255
-0.499875 -0.784512 -2.09647 0 0 0 255 255 255
-0.526864 -0.810861 -2.18908 0 0 0 255 255 255
-0.553853 -0.83721 -2.2817 0 0 0 255 255 255
-0.580843 -0.863559 -2.37431 0 0 0 255 255 255
-0.607832 -0.889908 -2.46692 0 0 0 255 255 255
-0.634821 -0.916256 -2.55954 0 0 0 255 255 255
-0.66181 -0.942605 -2.65215 0 0 0 255 255 255
-0.688799 -0.968954 -2.74476 0 0 0 255 255 255
-0.715788 -0.995303 -2.83738 0 0 0 255 255 255
-0.742778 -1.02165 -2.92999 0 0 0 255 255 255
-0.769767 -1.048 -3.02261 0 0 0 255 255 255
-0.796756 -1.07435 -3.11522 0 0 0 255 255 255
-0.823745 -1.1007 -3.20783 0 0 0 255 255 255
-0.850734 -1.12705 -3.30045 0 0 0 255 255 255
-0.877724 -1.1534 -3.39306 0 0 0 255 255 255
-0.904713 -1.17975 -3.48567 0 0 0 255 255 255
-0.931702 -1.20609 -3.57829 0 0 0 255 255 255
-0.958691 -1.23244 -3.6709 0 0 0 255 255 255
-0.98568 -1.25879 -3.76352 0 0 0 255 255 255
-1.01267 -1.28514 -3.85613 0 0 0 255 255 255
-1.03966 -1.31149 -3.94874 0 0 0 255 255 255
-1.06665 -1.33784 -4.04136 0 0 0 255 255 255
-1.09364 -1.36419 -4.13397 0 0 0 255 255 255
-1.12063 -1.39054 -4.22658 0 0 0 255 255 255
-1.14762 -1.41688 -4.3192 0 0 0 255 255 255
-1.1746 -1.44323 -4.41181 0 0 0 255 255 255
-1.20159 -1.46958 -4.50443 0 0 0 255 255 255
-1.22858 -1.49593 -4.59704 0 0 0 255 255 255
-1.25557 -1.52228 -4.68965 0 0 0 255 255 255
-1.28256 -1.54863 -4.78227 0 0 0 255 255 255
-1.30955 -1.57498 -4.87488 0 0 0 255 255 255
-1.33654 -1.60133 -4.96749 0 0 0 255 255 255
-1.36353 -1.62768 -5.06011 0 0 0 255 255 255
-1.39052 -1.65402 -5.15272 0 0 0 255 255 255
-1.41751 -1.68037 -5.24533 0 0 0 255 255 255
-1.4445 -1.70672 -5.33795 0 0 0 255 255 255
-1.47149 -1.73307 -5.43056 0 0 0 255 255 255
-1.49847 -1.75942 -5.52318 0 0 0 255 255 255
-1.52546 -1.78577 -5.61579 0 0 0 255 255 255
-1.55245 -1.81212 -5.7084 0 0 0 255 255 255
-1.57944 -1.83847 -5.80102 0 0 0 255 255 255
-1.60643 -1.86482 -5.89363 0 0 0 255 255 255
-1.63342 -1.89116 -5.98624 0 0 0 255 255 255
-1.66041 -1.91751 -6.07886 0 0 0 255 255 255
-1.6874 -1.94386 -6.17147 0 0 0 255 255 255
-1.71439 -1.97021 -6.26409 0 0 0 255 255 255
-1.74138 -1.99656 -6.3567 0 0 0 255 255 255
-1.76837 -2.02291 -6.44931 0 0 0 255 255 255
-1.79536 -2.04926 -6.54193 0 0 0 255 255 255
-1.82234 -2.07561 -6.63454 0 0 0 255 255 255
-1.84933 -2.10196 -6.72715 0 0 0 255 255 255
-1.87632 -2.1283 -6.81977 0 0 0 255 255 255
-1.90331 -2.15465 -6.91238 0 0 0 255 255 255
-1.9303 -2.181 -7.005 0 0 0 255 255 255
-1.95729 -2.20735 -7.09761 0 0 0 255 255 255
-1.98428 -2.2337 -7.19023 0 0 0 255 255 255
-2.01127 -2.26005 -7.28284 0 0 0 255 255 255
-2.03826 -2.2864 -7.37545 0 0 0 255 255 255
-2.06525 -2.31275 -7.46807 0 0 0 255 255 255
-2.09224 -2.3391 -7.56068 0 0 0 255 255 255
-2.11923 -2.36545 -7.6533 0 0 0 255 255 255
-2.14622 -2.39179 -7.74591 0 0 0 255 255 255
-2.17321 -2.41814 -7.83852 0 0 0 255 255 255
-2.20019 -2.44449 -7.93114 0 0 0 255 255 255
-2.22718 -2.47084 -8.02375 0 0 0 255 255 255
-2.25417 -2.49719 -8.11637 0 0 0 255 255 255
-2.28116 -2.52354 -8.20898 0 0 0 255 255 255
-2.30815 -2.54989 -8.3016 0 0 0 255 255 255
-2.33514 -2.57624 -8.39421 0 0 0 255 255 255
-2.36213 -2.60259 -8.48682 0 0 0 255 255 255
-5.65809 0.345077 9.61263 0 0 0 255 255 255
-5.60427 0.341601 9.52842 0 0 0 255 255 255
-5.55046 0.338125 9.4442 0 0 0 255 255 255
-5.49664 0.334649 9.35999 0 0 0 255 255 255
-5.44283 0.331173 9.27578 0 0 0 255 255 255
-5.38901 0.327697 9.19156 0 0 0 255 255 255
-5.3352 0.324221 9.10735 0 0 0 255 255 255
-5.28138 0.320745 9.02314 0 0 0 255 255 255
-5.22757 0.317269 8.93892 0 0 0 255 255 255
-5.17375 0.313793 8.85471 0 0 0 255 255 255
-5.11994 0.310317 8.77049 0 0 0 255 255 255
-5.06612 0.306841 8.68628 0 0 0 255 255 255
-5.01231 0.303365 8.60207 0 0 0 255 255 255
-4.95849 0.299889 8.51785 0 0 0 255 255 255
-4.90468 0.296413 8.43364 0 0 0 255 255 255
-4.85086 0.292937 8.34943 0 0 0 255 255 255
-4.79705 0.289461 8.26521 0 0 0 255 255 255
-4.74323 0.285985 8.181 0 0 0 255 255 255
-4.68942 0.282509 8.09678 0 0 0 255 255 255
-4.6356 0.279033 8.01257 0 0 0 255 255 255
-4.58179 0.275557 7.92836 0 0 0 255 255 255
-4.52797 0.272081 7.84414 0 0 0 255 255 255
-4.47416 0.268605 7.75993 0 0 0 255 255 255
-4.42035 0.265129 7.67572 0 0 0 255 255 255
-4.36653 0.261653 7.5915 0 0 0 255 255 255
-4.31272 0.258177 7.50729 0 0 0 255 255 255
-4.2589 0.254701 7.42308 0 0 0 255 255 255
-4.20509 0.251225 7.33886 0 0 0 255 255 255
-4.15127 0.247749 7.25465 0 0 0 255 255 255
-4.09746 0.244273 7.17044 0 0 0 255 255 255
-4.04364 0.240797 7.08622 0 0 0 255 255 255
-3.98983 0.237321 7.00201 0 0 0 255 255 255
-3.93601 0.233845 6.9178 0 0 0 255 255 255
-3.8822 0.230369 6.83358 0 0 0 255 255 255
-3.82838 0.226893 6.74937 0 0 0 255 255 255
-3.77457 0.223418 6.66516 0 0 0 255 255 255
-3.72076 0.219942 6.58094 0 0 0 255 255 255
-3.66694 0.216466 6.49673 0 0 0 255 255 255
-3.61313 0.21299 6.41252 0 0 0 255 255 255
-3.55931 0.209514 6.3283 0 0 0 255 255 255
-3.5055 0.206038 6.24409 0 0 0 255 255 255
-3.45168 0.202562 6.15988 0 0 0 255 255 255
-3.39787 0.199086 6.07566 0 0 0 255 255 255
-3.34405 0.19561 5.99145 0 0 0 255 255 255
-3.29024 0.192134 5.90724 0 0 0 255 255 255
-3.23642 0.188658 5.82302 0 0 0 255 255 255
-3.18261 0.185182 5.73881 0 0 0 255 255 255
-3.12879 0.181706 5.6546 0 0 0 255 255 255
-3.07498 0.17823 5.57038 0 0 0 255 255 255
-3.02117 0.174754 5.48617 0 0 0 255 255 255
-2.96735 0.171278 5.40196 0 0 0 255 255 255
-2.91354 0.167802 5.31774 0 0 0 255 255 255
-2.85972 0.164326 5.23353 0 0 0 255 255 255
-2.80591 0.16085 5.14932 0 0 0 255 255 255
-2.75209 0.157374 5.0651 0 0 0 255 255 255
-2.69828 0.153898 4.98089 0 0 0 255 255 255
-2.64446 0.150422 4.89668 0 0 0 255 255 255
-2.59065 0.146946 4.81246 0 0 0 255 255 255
-2.53683 0.14347 4.72825 0 0 0 255 255 255
-2.48302 0.139994 4.64404 0 0 0 255 255 255
-2.4292 0.136518 4.55982 0 0 0 255 255 255
-2.37539 0.133042 4.47561 0 0 0 255 255 255
-2.32158 0.129566 4.3914 0 0 0 255 255 255
-2.26776 0.12609 4.30718 0 0 0 255 255 255
-2.21395 0.122614 4.22297 0 0 0 255 255 255
-2.16013 0.119138 4.13876 0 0 0 255 255 255
-2.10632 0.115662 4.05454 0 0 0 255 255 255
-2.0525 0.112186 3.97033 0 0 0 255 255 255
-1.99869 0.10871 3.88612 0 0 0 255 255 255
-1.94487 0.105234 3.8019 0 0 0 255 255 255
-1.89106 0.101758 3.71769 0 0 0 255 255 255
-1.83724 0.0982825 3.63348 0 0 0 255 255 255
-1.78343 0.0948065 3.54926 0 0 0 255 255 255
-1.72961 0.0913305 3.46505 0 0 0 255 255 255
-1.6758 0.0878546 3.38084 0 0 0 255 255 255
-1.62199 0.0843786 3.29662 0 0 0 255 255 255
-1.56817 0.0809026 3.21241 0 0 0 255 255 255
-1.51436 0.0774267 3.1282 0 0 0 255 255 255
-1.46054 0.0739507 3.04398 0 0 0 255 255 255
-1.40673 0.0704747 2.95977 0 0 0 255 255 255
-1.35291 0.0669987 2.87556 0 0 0 255 255 255
-1.2991 0.0635228 2.79134 0 0 0 255 255 255
-1.24528 0.0600468 2.70713 0 0 0 255 255 255
-1.19147 0.0565708 2.62292 0 0 0 255 255 255
-1.13765 0.0530948 2.5387 0 0 0 255 255 255
-1.08384 0.0496188 2.45449 0 0 0 255 255 255
-1.03002 0.0461429 2.37028 0 0 0 255 255 255
-0.976209 0.0426669 2.28606 0 0 0 255 255 255
-0.922395 0.0391909 2.20185 0 0 0 255 255 255
-0.86858 0.0357149 2.11764 0 0 0 255 255 255
-0.814765 0.032239 2.03342 0 0 0 255 255 255
-0.760951 0.028763 1.94921 0 0 0 255 255 255
-0.707136 0.025287 1.865 0 0 0 255 255 255
-0.653321 0.021811 1.78078 0 0 0 255 255 255
-0.599507 0.0183351 1.69657 0 0 0 255 255 255
-0.545692 0.0148591 1.61236 0 0 0 255 255 255
-0.491877 0.0113831 1.52814 0 0 0 255 255 255
-0.438063 0.00790713 1.44393 0 0 0 255 255 255
