ply
format ascii 1.0
element vertex 1162
property float x
property float y
property float z
property float nx
property float ny
property float nz
property uchar red
property uchar green
property uchar blue
end_header
1.3895 1.60555 -3.22811 0 0 0 0 255 0
1.4212 1.63509 -3.31824 0 0 0 0 255 0
1.4529 1.66463 -3.40837 0 0 0 0 255 0
1.48459 1.69417 -3.49849 0 0 0 0 255 0
1.51629 1.72371 -3.58862 0 0 0 0 255 0
1.54799 1.75325 -3.67874 0 0 0 0 255 0
1.57969 1.78279 -3.76887 0 0 0 0 255 0
1.61138 1.81233 -3.85899 0 0 0 0 255 0
1.64308 1.84187 -3.94912 0 0 0 0 255 0
1.67478 1.87141 -4.03925 0 0 0 0 255 0
1.70648 1.90095 -4.12937 0 0 0 0 255 0
1.73818 1.93049 -4.2195 0 0 0 0 255 0
1.76987 1.96003 -4.30962 0 0 0 0 255 0
1.80157 1.98957 -4.39975 0 0 0 0 255 0
1.83327 2.01911 -4.48987 0 0 0 0 255 0
1.86497 2.04865 -4.58 0 0 0 0 255 0
1.89666 2.07819 -4.67012 0 0 0 0 255 0
1.92836 2.10773 -4.76025 0 0 0 0 255 0
1.96006 2.13727 -4.85038 0 0 0 0 255 0
1.99176 2.16681 -4.9405 0 0 0 0 255 0
2.02345 2.19635 -5.03063 0 0 0 0 255 0
2.05515 2.22589 -5.12075 0 0 0 0 255 0
2.08685 2.25543 -5.21088 0 0 0 0 255 0
2.11855 2.28497 -5.301 0 0 0 0 255 0
2.15024 2.31451 -5.39113 0 0 0 0 255 0
2.18194 2.34405 -5.48125 0 0 0 0 255 0
2.21364 2.37359 -5.57138 0 0 0 0 255 0
2.24534 2.40313 -5.66151 0 0 0 0 255 0
2.27703 2.43267 -5.75163 0 0 0 0 255 0
2.30873 2.46221 -5.84176 0 0 0 0 255 0
2.34043 2.49175 -5.93188 0 0 0 0 255 0
2.37213 2.52129 -6.02201 0 0 0 0 255 0
2.40382 2.55083 -6.11213 0 0 0 0 255 0
2.43552 2.58037 -6.20226 0 0 0 0 255 0
2.46722 2.60991 -6.29238 0 0 0 0 255 0
2.49892 2.63945 -6.38251 0 0 0 0 255 0
2.53061 2.66899 -6.47264 0 0 0 0 255 0
2.56231 2.69853 -6.56276 0 0 0 0 255 0
2.59401 2.72807 -6.65289 0 0 0 0 255 0
2.62571 2.75762 -6.74301 0 0 0 0 255 0
2.65741 2.78716 -6.83314 0 0 0 0 255 0
2.6891 2.8167 -6.92327 0 0 0 0 255 0
2.7208 2.84624 -7.01339 0 0 0 0 255 0
2.7525 2.87578 -7.10352 0 0 0 0 255 0
2.7842 2.90532 -7.19364 0 0 0 0 255 0
2.81589 2.93486 -7.28377 0 0 0 0 255 0
2.84759 2.9644 -7.3739 0 0 0 0 255 0
2.87929 2.99394 -7.46402 0 0 0 0 255 0
2.91099 3.02348 -7.55415 0 0 0 0 255 0
2.94269 3.05302 -7.64427 0 0 0 0 255 0
2.97438 3.08256 -7.7344 0 0 0 0 255 0
3.00608 3.1121 -7.82453 0 0 0 0 255 0
3.03778 3.14164 -7.91465 0 0 0 0 255 0
3.30414 -1.1949 10.3131 0 0 0 0 255 0
3.27455 -1.18093 10.2186 0 0 0 0 255 0
3.24496 -1.16695 10.1241 0 0 0 0 255 0
3.21537 -1.15298 10.0296 0 0 0 0 255 0
3.18577 -1.139 9.93508 0 0 0 0 255 0
3.15618 -1.12502 9.84059 0 0 0 0 255 0
3.12659 -1.11105 9.74609 0 0 0 0 255 0
3.097 -1.09707 9.6516 0 0 0 0 255 0
3.06741 -1.0831 9.5571 0 0 0 0 255 0
3.03782 -1.06912 9.46261 0 0 0 0 255 0
3.00822 -1.05514 9.36812 0 0 0 0 255 0
2.97863 -1.04117 9.27362 0 0 0 0 255 0
2.94904 -1.02719 9.17913 0 0 0 0 255 0
2.91945 -1.01322 9.08463 0 0 0 0 255 0
2.88986 -0.99924 8.99014 0 0 0 0 255 0
2.86027 -0.985264 8.89565 0 0 0 0 255 0
2.83068 -0.971288 8.80115 0 0 0 0 255 0
2.80108 -0.957313 8.70666 0 0 0 0 255 0
2.77149 -0.943337 8.61216 0 0 0 0 255 0
2.7419 -0.929361 8.51767 0 0 0 0 255 0
2.71231 -0.915385 8.42318 0 0 0 0 255 0
2.68272 -0.901409 8.32868 0 0 0 0 255 0
2.65313 -0.887433 8.23419 0 0 0 0 255 0
2.62354 -0.873457 8.1397 0 0 0 0 255 0
2.59394 -0.859481 8.0452 0 0 0 0 255 0
2.56435 -0.845506 7.95071 0 0 0 0 255 0
2.53476 -0.83153 7.85622 0 0 0 0 255 0
2.50517 -0.817554 7.76172 0 0 0 0 255 0
2.47558 -0.803578 7.66723 0 0 0 0 255 0
2.44599 -0.789602 7.57274 0 0 0 0 255 0
2.4164 -0.775626 7.47824 0 0 0 0 255 0
2.3868 -0.761651 7.38375 0 0 0 0 255 0
2.35721 -0.747675 7.28926 0 0 0 0 255 0
2.32762 -0.733699 7.19476 0 0 0 0 255 0
2.29803 -0.719723 7.10027 0 0 0 0 255 0
2.26844 -0.705747 7.00578 0 0 0 0 255 0
2.23885 -0.691771 6.91128 0 0 0 0 255 0
2.20926 -0.677795 6.81679 0 0 0 0 255 0
2.17967 -0.66382 6.7223 0 0 0 0 255 0
2.15007 -0.649844 6.6278 0 0 0 0 255 0
2.12048 -0.635868 6.53331 0 0 0 0 255 0
2.09089 -0.621892 6.43882 0 0 0 0 255 0
2.0613 -0.607916 6.34432 0 0 0 0 255 0
2.03171 -0.59394 6.24983 0 0 0 0 255 0
2.00212 -0.579965 6.15534 0 0 0 0 255 0
1.97253 -0.565989 6.06084 0 0 0 0 255 0
1.94293 -0.552013 5.96635 0 0 0 0 255 0
1.91334 -0.538037 5.87186 0 0 0 0 255 0
1.88375 -0.524061 5.77736 0 0 0 0 255 0
1.85416 -0.510085 5.68287 0 0 0 0 255 0
1.82457 -0.496109 5.58837 0 0 0 0 255 0
1.79498 -0.482134 5.49388 0 0 0 0 255 0
1.76539 -0.468158 5.39939 0 0 0 0 255 0
1.73579 -0.454182 5.30489 0 0 0 0 255 0
1.7062 -0.440206 5.2104 0 0 0 0 255 0
1.67661 -0.42623 5.11591 0 0 0 0 255 0
1.64702 -0.412254 5.02141 0 0 0 0 255 0
1.61743 -0.398279 4.92692 0 0 0 0 255 0
1.58784 -0.384303 4.83243 0 0 0 0 255 0
1.55825 -0.370327 4.73793 0 0 0 0 255 0
1.52865 -0.356351 4.64344 0 0 0 0 255 0
1.49906 -0.342375 4.54895 0 0 0 0 255 0
1.46947 -0.328399 4.45445 0 0 0 0 255 0
1.43988 -0.314423 4.35996 0 0 0 0 255 0
1.41029 -0.300448 4.26547 0 0 0 0 255 0
1.3807 -0.286472 4.17097 0 0 0 0 255 0
1.35111 -0.272496 4.07648 0 0 0 0 255 0
1.32152 -0.25852 3.98199 0 0 0 0 255 0
1.29192 -0.244544 3.88749 0 0 0 0 255 0
1.26233 -0.230568 3.793 0 0 0 0 255 0
1.23274 -0.216593 3.69851 0 0 0 0 255 0
1.20315 -0.202617 3.60401 0 0 0 0 255 0
1.17356 -0.188641 3.50952 0 0 0 0 255 0
1.14397 -0.174665 3.41503 0 0 0 0 255 0
1.11438 -0.160689 3.32053 0 0 0 0 255 0
1.08478 -0.146713 3.22604 0 0 0 0 255 0
1.05519 -0.132737 3.13155 0 0 0 0 255 0
1.0256 -0.118762 3.03705 0 0 0 0 255 0
0.99601 -0.104786 2.94256 0 0 0 0 255 0
0.966419 -0.0908099 2.84807 0 0 0 0 255 0
0.936827 -0.076834 2.75357 0 0 0 0 255 0
0.907236 -0.0628582 2.65908 0 0 0 0 255 0
0.877645 -0.0488823 2.56458 0 0 0 0 255 0
0.848053 -0.0349064 2.47009 0 0 0 0 255 0
0.818462 -0.0209306 2.3756 0 0 0 0 255 0
0.78887 -0.00695471 2.2811 0 0 0 0 255 0
0.759279 0.00702115 2.18661 0 0 0 0 255 0
0.729688 0.020997 2.09212 0 0 0 0 255 0
0.700096 0.0349729 1.99762 0 0 0 0 255 0
0.670505 0.0489487 1.90313 0 0 0 0 255 0
0.640913 0.0629246 1.80864 0 0 0 0 255 0
0.611322 0.0769005 1.71414 0 0 0 0 255 0
0.581731 0.0908763 1.61965 0 0 0 0 255 0
0.552139 0.104852 1.52516 0 0 0 0 255 0
0.522548 0.118828 1.43066 0 0 0 0 255 0
0.492956 0.132804 1.33617 0 0 0 0 255 0
0.463365 0.14678 1.24168 0 0 0 0 255 0
0.433774 0.160756 1.14718 0 0 0 0 255 0
0.404182 0.174731 1.05269 0 0 0 0 255 0
0.374591 0.188707 0.958195 0 0 0 0 255 0
0.344999 0.202683 0.863701 0 0 0 0 255 0
0.315408 0.216659 0.769208 0 0 0 0 255 0
0.285817 0.230635 0.674714 0 0 0 0 255 0
0.256225 0.244611 0.580221 0 0 0 0 255 0
0.226634 0.258587 0.485727 0 0 0 0 255 0
0.197042 0.272563 0.391234 0 0 0 0 255 0
0.167451 0.286538 0.29674 0 0 0 0 255 0
0.13786 0.300514 0.202247 0 0 0 0 255 0
0.108268 0.31449 0.107753 0 0 0 0 255 0
0.0786767 0.328466 0.0132597 0 0 0 0 255 0
0.0490853 0.342442 -0.0812338 0 0 0 0 255 0
0.0194939 0.356418 -0.175727 0 0 0 0 255 0
-0.0100975 0.370394 -0.270221 0 0 0 0 255 0
-0.0396889 0.384369 -0.364714 0 0 0 0 255 0
-0.0692803 0.398345 -0.459208 0 0 0 0 255 0
-0.0988717 0.412321 -0.553701 0 0 0 0 255 0
-0.128463 0.426297 -0.648195 0 0 0 0 255 0
-0.158055 0.440273 -0.742689 0 0 0 0 255 0
-0.187646 0.454249 -0.837182 0 0 0 0 255 0
-0.217237 0.468225 -0.931676 0 0 0 0 255 0
-0.246829 0.4822 -1.02617 0 0 0 0 255 0
-0.27642 0.496176 -1.12066 0 0 0 0 255 0
-0.306011 0.510152 -1.21516 0 0 0 0 255 0
-0.335603 0.524128 -1.30965 0 0 0 0 255 0
-0.365194 0.538104 -1.40414 0 0 0 0 255 0
-0.394786 0.55208 -1.49864 0 0 0 0 255 0
-0.424377 0.566056 -1.59313 0 0 0 0 255 0
-0.453968 0.580031 -1.68762 0 0 0 0 255 0
-0.48356 0.594007 -1.78212 0 0 0 0 255 0
-0.513151 0.607983 -1.87661 0 0 0 0 255 0
-0.542742 0.621959 -1.9711 0 0 0 0 255 0
-0.572334 0.635935 -2.0656 0 0 0 0 255 0
-0.601925 0.649911 -2.16009 0 0 0 0 255 0
-0.631517 0.663886 -2.25458 0 0 0 0 255 0
-0.661108 0.677862 -2.34908 0 0 0 0 255 0
-0.690699 0.691838 -2.44357 0 0 0 0 255 0
-0.720291 0.705814 -2.53806 0 0 0 0 255 0
-0.749882 0.71979 -2.63256 0 0 0 0 255 0
-0.779473 0.733766 -2.72705 0 0 0 0 255 0
-0.809065 0.747742 -2.82154 0 0 0 0 255 0
-0.838656 0.761717 -2.91604 0 0 0 0 255 0
-0.868248 0.775693 -3.01053 0 0 0 0 255 0
-0.897839 0.789669 -3.10502 0 0 0 0 255 0
-0.92743 0.803645 -3.19952 0 0 0 0 255 0
-0.957022 0.817621 -3.29401 0 0 0 0 255 0
-0.986613 0.831597 -3.38851 0 0 0 0 255 0
-1.0162 0.845573 -3.483 0 0 0 0 255 0
-1.0458 0.859548 -3.57749 0 0 0 0 255 0
-1.07539 0.873524 -3.67199 0 0 0 0 255 0
-1.10498 0.8875 -3.76648 0 0 0 0 255 0
-1.13457 0.901476 -3.86097 0 0 0 0 255 0
-1.16416 0.915452 -3.95547 0 0 0 0 255 0
-1.19375 0.929428 -4.04996 0 0 0 0 255 0
-1.22334 0.943403 -4.14445 0 0 0 0 255 0
-1.25294 0.957379 -4.23895 0 0 0 0 255 0
-1.28253 0.971355 -4.33344 0 0 0 0 255 0
-1.31212 0.985331 -4.42793 0 0 0 0 255 0
-1.34171 0.999307 -4.52243 0 0 0 0 255 0
-1.3713 1.01328 -4.61692 0 0 0 0 255 0
-1.40089 1.02726 -4.71141 0 0 0 0 255 0
-1.43048 1.04123 -4.80591 0 0 0 0 255 0
-1.46008 1.05521 -4.9004 0 0 0 0 255 0
-1.48967 1.06919 -4.99489 0 0 0 0 255 0
-1.51926 1.08316 -5.08939 0 0 0 0 255 0
-1.54885 1.09714 -5.18388 0 0 0 0 255 0
-1.57844 1.11111 -5.27837 0 0 0 0 255 0
-1.60803 1.12509 -5.37287 0 0 0 0 255 0
-1.63762 1.13907 -5.46736 0 0 0 0 255 0
-1.66721 1.15304 -5.56185 0 0 0 0 255 0
-1.69681 1.16702 -5.65635 0 0 0 0 255 0
-1.7264 1.18099 -5.75084 0 0 0 0 255 0
-1.75599 1.19497 -5.84533 0 0 0 0 255 0
-1.78558 1.20894 -5.93983 0 0 0 0 255 0
-1.81517 1.22292 -6.03432 0 0 0 0 255 0
-1.84476 1.2369 -6.12881 0 0 0 0 255 0
-1.87435 1.25087 -6.22331 0 0 0 0 255 0
-1.90395 1.26485 -6.3178 0 0 0 0 255 0
-1.93354 1.27882 -6.41229 0 0 0 0 255 0
-1.96313 1.2928 -6.50679 0 0 0 0 255 0
-1.99272 1.30678 -6.60128 0 0 0 0 255 0
-2.02231 1.32075 -6.69577 0 0 0 0 255 0
-2.0519 1.33473 -6.79027 0 0 0 0 255 0
-2.08149 1.3487 -6.88476 0 0 0 0 255 0
-2.11109 1.36268 -6.97926 0 0 0 0 255 0
-2.14068 1.37665 -7.07375 0 0 0 0 255 0
-2.17027 1.39063 -7.16824 0 0 0 0 255 0
-2.19986 1.40461 -7.26274 0 0 0 0 255 0
-2.22945 1.41858 -7.35723 0 0 0 0 255 0
-2.25904 1.43256 -7.45173 0 0 0 0 255 0
-2.28863 1.44653 -7.54622 0 0 0 0 255 0
-2.31823 1.46051 -7.64071 0 0 0 0 255 0
-2.34782 1.47449 -7.73521 0 0 0 0 255 0
-2.37741 1.48846 -7.8297 0 0 0 0 255 0
-2.407 1.50244 -7.92419 0 0 0 0 255 0
-2.43659 1.51641 -8.01869 0 0 0 0 255 0
-2.46618 1.53039 -8.11318 0 0 0 0 255 0
-2.49578 1.54437 -8.20768 0 0 0 0 255 0
-2.52537 1.55834 -8.30217 0 0 0 0 255 0
-2.55496 1.57232 -8.39666 0 0 0 0 255 0
-2.58455 1.58629 -8.49116 0 0 0 0 255 0
-5.51329 -2.29431 10.0494 0 0 0 0 255 0
-5.46332 -2.27063 9.96609 0 0 0 0 255 0
-5.41334 -2.24694 9.88277 0 0 0 0 255 0
-5.36336 -2.22325 9.79946 0 0 0 0 255 0
-5.31339 -2.19956 9.71614 0 0 0 0 255 0
-5.26341 -2.17587 9.63283 0 0 0 0 255 0
-5.21343 -2.15218 9.54952 0 0 0 0 255 0
-5.16346 -2.12849 9.4662 0 0 0 0 255 0
-5.11348 -2.1048 9.38289 0 0 0 0 255 0
-5.0635 -2.08111 9.29957 0 0 0 0 255 0
-5.01352 -2.05742 9.21626 0 0 0 0 255 0
-4.96355 -2.03373 9.13295 0 0 0 0 255 0
-4.91357 -2.01004 9.04963 0 0 0 0 255 0
-4.86359 -1.98636 8.96632 0 0 0 0 255 0
-4.81362 -1.96267 8.883 0 0 0 0 255 0
-4.76364 -1.93898 8.79969 0 0 0 0 255 0
-4.71366 -1.91529 8.71638 0 0 0 0 255 0
-4.66369 -1.8916 8.63306 0 0 0 0 255 0
-4.61371 -1.86791 8.54975 0 0 0 0 255 0
-4.56373 -1.84422 8.46643 0 0 0 0 255 0
-4.51376 -1.82053 8.38312 0 0 0 0 255 0
-4.46378 -1.79684 8.29981 0 0 0 0 255 0
-4.4138 -1.77315 8.21649 0 0 0 0 255 0
-4.36383 -1.74946 8.13318 0 0 0 0 255 0
-4.31385 -1.72577 8.04987 0 0 0 0 255 0
-4.26387 -1.70209 7.96655 0 0 0 0 255 0
-4.2139 -1.6784 7.88324 0 0 0 0 255 0
-4.16392 -1.65471 7.79992 0 0 0 0 255 0
-4.11395 -1.63102 7.71661 0 0 0 0 255 0
-4.06397 -1.60733 7.6333 0 0 0 0 255 0
-4.01399 -1.58364 7.54998 0 0 0 0 255 0
-3.96402 -1.55995 7.46667 0 0 0 0 255 0
-3.91404 -1.53626 7.38336 0 0 0 0 255 0
-3.86406 -1.51257 7.30004 0 0 0 0 255 0
-3.81409 -1.48888 7.21673 0 0 0 0 255 0
-3.76411 -1.46519 7.13342 0 0 0 0 255 0
-3.71413 -1.44151 7.0501 0 0 0 0 255 0
-3.66416 -1.41782 6.96679 0 0 0 0 255 0
-3.61418 -1.39413 6.88348 0 0 0 0 255 0
-3.5642 -1.37044 6.80016 0 0 0 0 255 0
-3.51423 -1.34675 6.71685 0 0 0 0 255 0
-3.46425 -1.32306 6.63353 0 0 0 0 255 0
-3.41427 -1.29937 6.55022 0 0 0 0 255 0
-3.3643 -1.27568 6.46691 0 0 0 0 255 0
-3.31432 -1.25199 6.38359 0 0 0 0 255 0
-3.26434 -1.2283 6.30028 0 0 0 0 255 0
-3.21437 -1.20461 6.21697 0 0 0 0 255 0
-3.16439 -1.18093 6.13365 0 0 0 0 255 0
-3.11441 -1.15724 6.05034 0 0 0 0 255 0
-3.06444 -1.13355 5.96703 0 0 0 0 255 0
-3.01446 -1.10986 5.88371 0 0 0 0 255 0
-2.96448 -1.08617 5.8004 0 0 0 0 255 0
-2.91451 -1.06248 5.71709 0 0 0 0 255 0
-2.86453 -1.03879 5.63377 0 0 0 0 255 0
-2.81455 -1.0151 5.55046 0 0 0 0 255 0
-2.76458 -0.991412 5.46714 0 0 0 0 255 0
-2.7146 -0.967723 5.38383 0 0 0 0 255 0
-2.66463 -0.944034 5.30052 0 0 0 0 255 0
-2.61465 -0.920345 5.2172 0 0 0 0 255 0
-2.56467 -0.896656 5.13389 0 0 0 0 255 0
-2.5147 -0.872967 5.05058 0 0 0 0 255 0
-2.46472 -0.849278 4.96726 0 0 0 0 255 0
-2.41474 -0.825589 4.88395 0 0 0 0 255 0
-2.36477 -0.8019 4.80064 0 0 0 0 255 0
-2.31479 -0.778211 4.71732 0 0 0 0 255 0
-2.26481 -0.754521 4.63401 0 0 0 0 255 0
-2.21484 -0.730832 4.5507 0 0 0 0 255 0
-2.16486 -0.707143 4.46738 0 0 0 0 255 0
-2.11488 -0.683454 4.38407 0 0 0 0 255 0
-2.06491 -0.659765 4.30075 0 0 0 0 255 0
-2.01493 -0.636076 4.21744 0 0 0 0 255 0
-1.96495 -0.612387 4.13413 0 0 0 0 255 0
-1.91498 -0.588698 4.05081 0 0 0 0 255 0
-1.865 -0.565009 3.9675 0 0 0 0 255 0
-1.81502 -0.54132 3.88419 0 0 0 0 255 0
-1.76505 -0.51763 3.80087 0 0 0 0 255 0
-1.71507 -0.493941 3.71756 0 0 0 0 255 0
-1.66509 -0.470252 3.63425 0 0 0 0 255 0
-1.61512 -0.446563 3.55093 0 0 0 0 255 0
-1.56514 -0.422874 3.46762 0 0 0 0 255 0
-1.51516 -0.399185 3.38431 0 0 0 0 255 0
-1.46519 -0.375496 3.30099 0 0 0 0 255 0
-1.41521 -0.351807 3.21768 0 0 0 0 255 0
-1.36523 -0.328118 3.13436 0 0 0 0 255 0
-1.31526 -0.304428 3.05105 0 0 0 0 255 0
-1.26528 -0.280739 2.96774 0 0 0 0 255 0
-1.21531 -0.25705 2.88442 0 0 0 0 255 0
-1.16533 -0.233361 2.80111 0 0 0 0 255 0
-1.11535 -0.209672 2.7178 0 0 0 0 255 0
-1.06538 -0.185983 2.63448 0 0 0 0 255 0
-1.0154 -0.162294 2.55117 0 0 0 0 255 0
-0.965422 -0.138605 2.46785 0 0 0 0 255 0
-0.915446 -0.114915 2.38454 0 0 0 0 255 0
-0.865469 -0.0912263 2.30123 0 0 0 0 255 0
-0.815492 -0.0675372 2.21791 0 0 0 0 255 0
-0.765516 -0.0438481 2.1346 0 0 0 0 255 0
-0.715539 -0.020159 2.05129 0 0 0 0 255 0
-0.665563 0.00353013 1.96797 0 0 0 0 255 0
-0.615586 0.0272192 1.88466 0 0 0 0 255 0
-0.565609 0.0509084 1.80135 0 0 0 0 255 0
-0.515633 0.0745975 1.71803 0 0 0 0 255 0
-0.465656 0.0982866 1.63472 0 0 0 0 255 0
-0.41568 0.121976 1.5514 0 0 0 0 255 0
-0.365703 0.145665 1.46809 0 0 0 0 255 0
-0.315726 0.169354 1.38478 0 0 0 0 255 0
-0.26575 0.193043 1.30146 0 0 0 0 255 0
-0.215773 0.216732 1.21815 0 0 0 0 255 0
-0.165797 0.240421 1.13484 0 0 0 0 255 0
-0.11582 0.26411 1.05152 0 0 0 0 255 0
-0.0658434 0.2878 0.968209 0 0 0 0 255 0
-0.0158668 0.311489 0.884895 0 0 0 0 255 0
0.0341098 0.335178 0.801581 0 0 0 0 255 0
0.0840864 0.358867 0.718268 0 0 0 0 255 0
0.134063 0.382556 0.634954 0 0 0 0 255 0
0.18404 0.406245 0.55164 0 0 0 0 255 0
0.234016 0.429934 0.468326 0 0 0 0 255 0
0.283993 0.453623 0.385013 0 0 0 0 255 0
0.333969 0.477313 0.301699 0 0 0 0 255 0
0.383946 0.501002 0.218385 0 0 0 0 255 0
0.433923 0.524691 0.135072 0 0 0 0 255 0
0.483899 0.54838 0.0517581 0 0 0 0 255 0
0.533876 0.572069 -0.0315555 0 0 0 0 255 0
0.583852 0.595758 -0.114869 0 0 0 0 255 0
0.633829 0.619447 -0.198183 0 0 0 0 255 0
0.683805 0.643136 -0.281496 0 0 0 0 255 0
0.733782 0.666825 -0.36481 0 0 0 0 255 0
0.783758 0.690514 -0.448123 0 0 0 0 255 0
0.833735 0.714204 -0.531437 0 0 0 0 255 0
0.883712 0.737893 -0.614751 0 0 0 0 255 0
0.933688 0.761582 -0.698064 0 0 0 0 255 0
0.983665 0.785271 -0.781378 0 0 0 0 255 0
1.03364 0.80896 -0.864691 0 0 0 0 255 0
1.08362 0.832649 -0.948005 0 0 0 0 255 0
1.13359 0.856338 -1.03132 0 0 0 0 255 0
1.18357 0.880027 -1.11463 0 0 0 0 255 0
1.23355 0.903716 -1.19795 0 0 0 0 255 0
1.28352 0.927405 -1.28126 0 0 0 0 255 0
1.3335 0.951095 -1.36457 0 0 0 0 255 0
1.38348 0.974784 -1.44789 0 0 0 0 255 0
1.43345 0.998473 -1.5312 0 0 0 0 255 0
1.48343 1.02216 -1.61451 0 0 0 0 255 0
1.53341 1.04585 -1.69783 0 0 0 0 255 0
1.58338 1.06954 -1.78114 0 0 0 0 255 0
1.63336 1.09323 -1.86445 0 0 0 0 255 0
1.68334 1.11692 -1.94777 0 0 0 0 255 0
1.73331 1.14061 -2.03108 0 0 0 0 255 0
1.78329 1.1643 -2.1144 0 0 0 0 255 0
1.83327 1.18799 -2.19771 0 0 0 0 255 0
1.88324 1.21167 -2.28102 0 0 0 0 255 0
1.93322 1.23536 -2.36434 0 0 0 0 255 0
1.9832 1.25905 -2.44765 0 0 0 0 255 0
2.03317 1.28274 -2.53096 0 0 0 0 255 0
2.08315 1.30643 -2.61428 0 0 0 0 255 0
2.13313 1.33012 -2.69759 0 0 0 0 255 0
2.1831 1.35381 -2.7809 0 0 0 0 255 0
2.23308 1.3775 -2.86422 0 0 0 0 255 0
2.28305 1.40119 -2.94753 0 0 0 0 255 0
2.33303 1.42488 -3.03084 0 0 0 0 255 0
2.38301 1.44857 -3.11416 0 0 0 0 255 0
2.43298 1.47225 -3.19747 0 0 0 0 255 0
2.48296 1.49594 -3.28079 0 0 0 0 255 0
2.53294 1.51963 -3.3641 0 0 0 0 255 0
2.58291 1.54332 -3.44741 0 0 0 0 255 0
2.63289 1.56701 -3.53073 0 0 0 0 255 0
2.68287 1.5907 -3.61404 0 0 0 0 255 0
2.73284 1.61439 -3.69735 0 0 0 0 255 0
2.78282 1.63808 -3.78067 0 0 0 0 255 0
2.8328 1.66177 -3.86398 0 0 0 0 255 0
2.88277 1.68546 -3.94729 0 0 0 0 255 0
2.93275 1.70915 -4.03061 0 0 0 0 255 0
2.98273 1.73283 -4.11392 0 0 0 0 255 0
3.0327 1.75652 -4.19723 0 0 0 0 255 0
3.08268 1.78021 -4.28055 0 0 0 0 255 0
3.13266 1.8039 -4.36386 0 0 0 0 255 0
3.18263 1.82759 -4.44718 0 0 0 0 255 0
3.23261 1.85128 -4.53049 0 0 0 0 255 0
3.28259 1.87497 -4.6138 0 0 0 0 255 0
3.33256 1.89866 -4.69712 0 0 0 0 255 0
3.38254 1.92235 -4.78043 0 0 0 0 255 0
3.43252 1.94604 -4.86374 0 0 0 0 255 0
3.48249 1.96973 -4.94706 0 0 0 0 255 0
3.53247 1.99341 -5.03037 0 0 0 0 255 0
3.58245 2.0171 -5.11368 0 0 0 0 255 0
3.63242 2.04079 -5.197 0 0 0 0 255 0
3.6824 2.06448 -5.28031 0 0 0 0 255 0
3.73238 2.08817 -5.36363 0 0 0 0 255 0
3.78235 2.11186 -5.44694 0 0 0 0 255 0
3.83233 2.13555 -5.53025 0 0 0 0 255 0
3.88231 2.15924 -5.61357 0 0 0 0 255 0
3.93228 2.18293 -5.69688 0 0 0 0 255 0
3.98226 2.20662 -5.7802 0 0 0 0 255 0
4.03224 2.23031 -5.86351 0 0 0 0 255 0
4.08221 2.254 -5.94682 0 0 0 0 255 0
4.13219 2.27769 -6.03014 0 0 0 0 255 0
4.18217 2.30137 -6.11345 0 0 0 0 255 0
4.23214 2.32506 -6.19677 0 0 0 0 255 0
4.28212 2.34875 -6.28008 0 0 0 0 255 0
4.3321 2.37244 -6.36339 0 0 0 0 255 0
4.38207 2.39613 -6.44671 0 0 0 0 255 0
4.43205 2.41982 -6.53002 0 0 0 0 255 0
0.173857 0.362373 0.461803 0 0 0 255 255 0
1.11103 -0.681546 10.8959 0 0 0 0 0 255
1.09671 -0.67444 10.7972 0 0 0 0 0 255
1.0824 -0.667333 10.6985 0 0 0 0 0 255
1.06808 -0.660227 10.5998 0 0 0 0 0 255
1.05377 -0.65312 10.5011 0 0 0 0 0 255
1.03945 -0.646014 10.4024 0 0 0 0 0 255
1.02514 -0.638907 10.3036 0 0 0 0 0 255
1.01083 -0.631801 10.2049 0 0 0 0 0 255
0.99651 -0.624695 10.1062 0 0 0 0 0 255
0.982195 -0.617588 10.0075 0 0 0 0 0 255
0.96788 -0.610482 9.90878 0 0 0 0 0 255
0.953566 -0.603375 9.81006 0 0 0 0 0 255
0.939251 -0.596269 9.71135 0 0 0 0 0 255
0.924936 -0.589163 9.61263 0 0 0 0 0 255
0.910621 -0.582056 9.51392 0 0 0 0 0 255
0.896306 -0.57495 9.4152 0 0 0 0 0 255
0.881991 -0.567843 9.31649 0 0 0 0 0 255
0.867676 -0.560737 9.21777 0 0 0 0 0 255
0.853361 -0.55363 9.11906 0 0 0 0 0 255
0.839047 -0.546524 9.02034 0 0 0 0 0 255
0.824732 -0.539418 8.92163 0 0 0 0 0 255
0.810417 -0.532311 8.82292 0 0 0 0 0 255
0.796102 -0.525205 8.7242 0 0 0 0 0 255
0.781787 -0.518098 8.62549 0 0 0 0 0 255
0.767472 -0.510992 8.52677 0 0 0 0 0 255
0.753158 -0.503886 8.42806 0 0 0 0 0 255
0.738843 -0.496779 8.32934 0 0 0 0 0 255
0.724528 -0.489673 8.23063 0 0 0 0 0 255
0.710213 -0.482567 8.13191 0 0 0 0 0 255
0.695898 -0.47546 8.0332 0 0 0 0 0 255
0.681584 -0.468354 7.93448 0 0 0 0 0 255
0.667269 -0.461247 7.83577 0 0 0 0 0 255
0.652954 -0.454141 7.73705 0 0 0 0 0 255
0.638639 -0.447035 7.63834 0 0 0 0 0 255
0.624324 -0.439928 7.53963 0 0 0 0 0 255
0.61001 -0.432822 7.44091 0 0 0 0 0 255
0.595695 -0.425715 7.3422 0 0 0 0 0 255
0.58138 -0.418609 7.24348 0 0 0 0 0 255
0.567065 -0.411503 7.14477 0 0 0 0 0 255
0.55275 -0.404396 7.04605 0 0 0 0 0 255
0.538435 -0.39729 6.94734 0 0 0 0 0 255
0.524121 -0.390184 6.84862 0 0 0 0 0 255
0.509806 -0.383077 6.74991 0 0 0 0 0 255
0.495491 -0.375971 6.65119 0 0 0 0 0 255
0.481176 -0.368864 6.55248 0 0 0 0 0 255
0.466861 -0.361758 6.45377 0 0 0 0 0 255
0.452547 -0.354652 6.35505 0 0 0 0 0 255
0.438232 -0.347545 6.25634 0 0 0 0 0 255
0.423917 -0.340439 6.15762 0 0 0 0 0 255
0.409602 -0.333332 6.05891 0 0 0 0 0 255
0.395287 -0.326226 5.96019 0 0 0 0 0 255
0.380973 -0.31912 5.86148 0 0 0 0 0 255
0.366658 -0.312013 5.76276 0 0 0 0 0 255
0.352343 -0.304907 5.66405 0 0 0 0 0 255
0.338028 -0.297801 5.56533 0 0 0 0 0 255
0.323713 -0.290694 5.46662 0 0 0 0 0 255
0.309398 -0.283588 5.36791 0 0 0 0 0 255
0.295084 -0.276481 5.26919 0 0 0 0 0 255
0.280769 -0.269375 5.17048 0 0 0 0 0 255
0.266454 -0.262269 5.07176 0 0 0 0 0 255
0.252139 -0.255162 4.97305 0 0 0 0 0 255
0.237824 -0.248056 4.87433 0 0 0 0 0 255
0.22351 -0.240949 4.77562 0 0 0 0 0 255
0.209195 -0.233843 4.6769 0 0 0 0 0 255
0.19488 -0.226737 4.57819 0 0 0 0 0 255
0.180565 -0.21963 4.47947 0 0 0 0 0 255
0.16625 -0.212524 4.38076 0 0 0 0 0 255
0.151936 -0.205418 4.28205 0 0 0 0 0 255
0.137621 -0.198311 4.18333 0 0 0 0 0 255
0.123306 -0.191205 4.08462 0 0 0 0 0 255
0.108991 -0.184098 3.9859 0 0 0 0 0 255
0.0946763 -0.176992 3.88719 0 0 0 0 0 255
0.0803615 -0.169886 3.78847 0 0 0 0 0 255
0.0660467 -0.162779 3.68976 0 0 0 0 0 255
0.0517319 -0.155673 3.59104 0 0 0 0 0 255
0.0374171 -0.148566 3.49233 0 0 0 0 0 255
0.0231022 -0.14146 3.39361 0 0 0 0 0 255
0.00878743 -0.134354 3.2949 0 0 0 0 0 255
-0.00552738 -0.127247 3.19618 0 0 0 0 0 255
-0.0198422 -0.120141 3.09747 0 0 0 0 0 255
-0.034157 -0.113035 2.99876 0 0 0 0 0 255
-0.0484719 -0.105928 2.90004 0 0 0 0 0 255
-0.0627867 -0.0988217 2.80133 0 0 0 0 0 255
-0.0771015 -0.0917154 2.70261 0 0 0 0 0 255
-0.0914163 -0.084609 2.6039 0 0 0 0 0 255
-0.105731 -0.0775026 2.50518 0 0 0 0 0 255
-0.120046 -0.0703962 2.40647 0 0 0 0 0 255
-0.134361 -0.0632898 2.30775 0 0 0 0 0 255
-0.148676 -0.0561834 2.20904 0 0 0 0 0 255
-0.16299 -0.049077 2.11032 0 0 0 0 0 255
-0.177305 -0.0419706 2.01161 0 0 0 0 0 255
-0.19162 -0.0348642 1.91289 0 0 0 0 0 255
-0.205935 -0.0277578 1.81418 0 0 0 0 0 255
-0.22025 -0.0206514 1.71546 0 0 0 0 0 255
-0.234565 -0.013545 1.61675 0 0 0 0 0 255
-0.248879 -0.00643864 1.51804 0 0 0 0 0 255
-0.263194 0.000667753 1.41932 0 0 0 0 0 255
-0.277509 0.00777414 1.32061 0 0 0 0 0 255
-0.291824 0.0148805 1.22189 0 0 0 0 0 255
-0.306139 0.0219869 1.12318 0 0 0 0 0 255
-0.320454 0.0290933 1.02446 0 0 0 0 0 255
-0.334768 0.0361997 0.925747 0 0 0 0 0 255
-0.349083 0.0433061 0.827033 0 0 0 0 0 255
-0.363398 0.0504125 0.728318 0 0 0 0 0 255
-0.377713 0.0575189 0.629603 0 0 0 0 0 255
-0.392028 0.0646253 0.530889 0 0 0 0 0 255
-0.406343 0.0717317 0.432174 0 0 0 0 0 255
-0.420657 0.0788381 0.333459 0 0 0 0 0 255
-0.434972 0.0859445 0.234745 0 0 0 0 0 255
-0.449287 0.0930508 0.13603 0 0 0 0 0 255
-0.463602 0.100157 0.0373154 0 0 0 0 0 255
-0.477917 0.107264 -0.0613993 0 0 0 0 0 255
-0.492232 0.11437 -0.160114 0 0 0 0 0 255
-0.506546 0.121476 -0.258829 0 0 0 0 0 255
-0.520861 0.128583 -0.357543 0 0 0 0 0 255
-0.535176 0.135689 -0.456258 0 0 0 0 0 255
-0.549491 0.142796 -0.554973 0 0 0 0 0 255
-0.563806 0.149902 -0.653687 0 0 0 0 0 255
-0.57812 0.157008 -0.752402 0 0 0 0 0 255
-0.592435 0.164115 -0.851117 0 0 0 0 0 255
-0.60675 0.171221 -0.949831 0 0 0 0 0 255
-0.621065 0.178328 -1.04855 0 0 0 0 0 255
-0.63538 0.185434 -1.14726 0 0 0 0 0 255
-0.649695 0.19254 -1.24598 0 0 0 0 0 255
-0.664009 0.199647 -1.34469 0 0 0 0 0 255
-0.678324 0.206753 -1.4434 0 0 0 0 0 255
-0.692639 0.213859 -1.54212 0 0 0 0 0 255
-0.706954 0.220966 -1.64083 0 0 0 0 0 255
-0.721269 0.228072 -1.73955 0 0 0 0 0 255
-0.735583 0.235179 -1.83826 0 0 0 0 0 255
-0.749898 0.242285 -1.93698 0 0 0 0 0 255
-0.764213 0.249391 -2.03569 0 0 0 0 0 255
-0.778528 0.256498 -2.13441 0 0 0 0 0 255
-0.792843 0.263604 -2.23312 0 0 0 0 0 255
-0.807158 0.270711 -2.33184 0 0 0 0 0 255
-0.821472 0.277817 -2.43055 0 0 0 0 0 255
-0.835787 0.284923 -2.52926 0 0 0 0 0 255
-0.850102 0.29203 -2.62798 0 0 0 0 0 255
-0.864417 0.299136 -2.72669 0 0 0 0 0 255
-0.878732 0.306242 -2.82541 0 0 0 0 0 255
-0.893046 0.313349 -2.92412 0 0 0 0 0 255
-0.907361 0.320455 -3.02284 0 0 0 0 0 255
-0.921676 0.327562 -3.12155 0 0 0 0 0 255
-0.935991 0.334668 -3.22027 0 0 0 0 0 255
-0.950306 0.341774 -3.31898 0 0 0 0 0 255
-0.96462 0.348881 -3.4177 0 0 0 0 0 255
-0.978935 0.355987 -3.51641 0 0 0 0 0 255
-0.99325 0.363094 -3.61513 0 0 0 0 0 255
-1.00756 0.3702 -3.71384 0 0 0 0 0 255
-1.02188 0.377306 -3.81255 0 0 0 0 0 255
-1.03619 0.384413 -3.91127 0 0 0 0 0 255
-1.05051 0.391519 -4.00998 0 0 0 0 0 255
-1.06482 0.398625 -4.1087 0 0 0 0 0 255
-1.07914 0.405732 -4.20741 0 0 0 0 0 255
-1.09345 0.412838 -4.30613 0 0 0 0 0 255
-1.10777 0.419945 -4.40484 0 0 0 0 0 255
-1.12208 0.427051 -4.50356 0 0 0 0 0 255
-1.1364 0.434157 -4.60227 0 0 0 0 0 255
-1.15071 0.441264 -4.70099 0 0 0 0 0 255
-1.16503 0.44837 -4.7997 0 0 0 0 0 255
-1.17934 0.455477 -4.89841 0 0 0 0 0 255
-1.19366 0.462583 -4.99713 0 0 0 0 0 255
-1.20797 0.469689 -5.09584 0 0 0 0 0 255
-1.22229 0.476796 -5.19456 0 0 0 0 0 255
-1.2366 0.483902 -5.29327 0 0 0 0 0 255
-1.25092 0.491008 -5.39199 0 0 0 0 0 255
-1.26523 0.498115 -5.4907 0 0 0 0 0 255
-1.27955 0.505221 -5.58942 0 0 0 0 0 255
-1.29386 0.512328 -5.68813 0 0 0 0 0 255
-1.30818 0.519434 -5.78685 0 0 0 0 0 255
-1.32249 0.52654 -5.88556 0 0 0 0 0 255
-1.33681 0.533647 -5.98427 0 0 0 0 0 255
-1.35112 0.540753 -6.08299 0 0 0 0 0 255
-1.36544 0.54786 -6.1817 0 0 0 0 0 255
-1.37975 0.554966 -6.28042 0 0 0 0 0 255
-1.39406 0.562072 -6.37913 0 0 0 0 0 255
-1.40838 0.569179 -6.47785 0 0 0 0 0 255
-1.42269 0.576285 -6.57656 0 0 0 0 0 255
-1.43701 0.583391 -6.67528 0 0 0 0 0 255
-1.45132 0.590498 -6.77399 0 0 0 0 0 255
-1.46564 0.597604 -6.87271 0 0 0 0 0 255
-1.47995 0.604711 -6.97142 0 0 0 0 0 255
-1.49427 0.611817 -7.07014 0 0 0 0 0 255
-1.50858 0.618923 -7.16885 0 0 0 0 0 255
-1.5229 0.62603 -7.26757 0 0 0 0 0 255
-1.53721 0.633136 -7.36628 0 0 0 0 0 255
-1.55153 0.640243 -7.465 0 0 0 0 0 255
-1.56584 0.647349 -7.56371 0 0 0 0 0 255
-1.58016 0.654456 -7.66243 0 0 0 0 0 255
-1.59447 0.661562 -7.76114 0 0 0 0 0 255
-1.60879 0.668668 -7.85986 0 0 0 0 0 255
-1.6231 0.675775 -7.95857 0 0 0 0 0 255
-1.63742 0.682881 -8.05729 0 0 0 0 0 255
-1.65173 0.689988 -8.156 0 0 0 0 0 255
-1.66605 0.697094 -8.25472 0 0 0 0 0 255
-1.68036 0.7042 -8.35343 0 0 0 0 0 255
-1.69468 0.711307 -8.45215 0 0 0 0 0 255
-1.70899 0.718413 -8.55086 0 0 0 0 0 255
-1.72331 0.72552 -8.64958 0 0 0 0 0 255
-1.73762 0.732626 -8.74829 0 0 0 0 0 255
5.81505 0.339302 9.2956 0 0 0 0 0 255
5.75922 0.33696 9.21266 0 0 0 0 0 255
5.70339 0.334619 9.12973 0 0 0 0 0 255
5.64757 0.332277 9.0468 0 0 0 0 0 255
5.59174 0.329936 8.96387 0 0 0 0 0 255
5.53591 0.327594 8.88093 0 0 0 0 0 255
5.48008 0.325253 8.798 0 0 0 0 0 255
5.42425 0.322911 8.71507 0 0 0 0 0 255
5.36843 0.320569 8.63213 0 0 0 0 0 255
5.3126 0.318228 8.5492 0 0 0 0 0 255
5.25677 0.315886 8.46627 0 0 0 0 0 255
5.20094 0.313545 8.38334 0 0 0 0 0 255
5.14511 0.311203 8.3004 0 0 0 0 0 255
5.08929 0.308862 8.21747 0 0 0 0 0 255
5.03346 0.30652 8.13454 0 0 0 0 0 255
4.97763 0.304178 8.05161 0 0 0 0 0 255
4.9218 0.301837 7.96867 0 0 0 0 0 255
4.86597 0.299495 7.88574 0 0 0 0 0 255
4.81015 0.297154 7.80281 0 0 0 0 0 255
4.75432 0.294812 7.71987 0 0 0 0 0 255
4.69849 0.29247 7.63694 0 0 0 0 0 255
4.64266 0.290129 7.55401 0 0 0 0 0 255
4.58684 0.287787 7.47108 0 0 0 0 0 255
4.53101 0.285446 7.38815 0 0 0 0 0 255
4.47518 0.283104 7.30521 0 0 0 0 0 255
4.41935 0.280763 7.22228 0 0 0 0 0 255
4.36352 0.278421 7.13935 0 0 0 0 0 255
4.3077 0.276079 7.05642 0 0 0 0 0 255
4.25187 0.273738 6.97348 0 0 0 0 0 255
4.19604 0.271396 6.89055 0 0 0 0 0 255
4.14021 0.269055 6.80762 0 0 0 0 0 255
4.08439 0.266713 6.72469 0 0 0 0 0 255
4.02856 0.264372 6.64175 0 0 0 0 0 255
3.97273 0.26203 6.55882 0 0 0 0 0 255
3.9169 0.259689 6.47589 0 0 0 0 0 255
3.86108 0.257347 6.39296 0 0 0 0 0 255
3.80525 0.255005 6.31003 0 0 0 0 0 255
3.74942 0.252664 6.22709 0 0 0 0 0 255
3.69359 0.250322 6.14416 0 0 0 0 0 255
3.63777 0.247981 6.06123 0 0 0 0 0 255
3.58194 0.245639 5.9783 0 0 0 0 0 255
3.52611 0.243298 5.89536 0 0 0 0 0 255
3.47028 0.240956 5.81243 0 0 0 0 0 255
3.41445 0.238614 5.7295 0 0 0 0 0 255
3.35863 0.236273 5.64657 0 0 0 0 0 255
3.3028 0.233931 5.56363 0 0 0 0 0 255
3.24697 0.23159 5.4807 0 0 0 0 0 255
3.19114 0.229248 5.39777 0 0 0 0 0 255
3.13532 0.226907 5.31484 0 0 0 0 0 255
3.07949 0.224565 5.23191 0 0 0 0 0 255
3.02366 0.222223 5.14897 0 0 0 0 0 255
2.96783 0.219882 5.06604 0 0 0 0 0 255
2.91201 0.21754 4.98311 0 0 0 0 0 255
2.85618 0.215199 4.90018 0 0 0 0 0 255
2.80035 0.212857 4.81724 0 0 0 0 0 255
2.74452 0.210516 4.73431 0 0 0 0 0 255
2.6887 0.208174 4.65138 0 0 0 0 0 255
2.63287 0.205832 4.56845 0 0 0 0 0 255
2.57704 0.203491 4.48551 0 0 0 0 0 255
2.52121 0.201149 4.40258 0 0 0 0 0 255
2.46538 0.198808 4.31965 0 0 0 0 0 255
2.40956 0.196466 4.23672 0 0 0 0 0 255
2.35373 0.194125 4.15379 0 0 0 0 0 255
2.2979 0.191783 4.07085 0 0 0 0 0 255
2.24207 0.189441 3.98792 0 0 0 0 0 255
2.18625 0.1871 3.90499 0 0 0 0 0 255
2.13042 0.184758 3.82206 0 0 0 0 0 255
2.07459 0.182417 3.73912 0 0 0 0 0 255
2.01876 0.180075 3.65619 0 0 0 0 0 255
1.96294 0.177734 3.57326 0 0 0 0 0 255
1.90711 0.175392 3.49033 0 0 0 0 0 255
1.85128 0.17305 3.40739 0 0 0 0 0 255
1.79545 0.170709 3.32446 0 0 0 0 0 255
1.73962 0.168367 3.24153 0 0 0 0 0 255
1.6838 0.166026 3.1586 0 0 0 0 0 255
1.62797 0.163684 3.07566 0 0 0 0 0 255
1.57214 0.161343 2.99273 0 0 0 0 0 255
1.51631 0.159001 2.9098 0 0 0 0 0 255
1.46049 0.15666 2.82687 0 0 0 0 0 255
1.40466 0.154318 2.74394 0 0 0 0 0 255
1.34883 0.151976 2.661 0 0 0 0 0 255
1.293 0.149635 2.57807 0 0 0 0 0 255
1.23718 0.147293 2.49514 0 0 0 0 0 255
1.18135 0.144952 2.41221 0 0 0 0 0 255
1.12552 0.14261 2.32927 0 0 0 0 0 255
1.06969 0.140269 2.24634 0 0 0 0 0 255
1.01387 0.137927 2.16341 0 0 0 0 0 255
0.958037 0.135585 2.08048 0 0 0 0 0 255
0.90221 0.133244 1.99754 0 0 0 0 0 255
0.846382 0.130902 1.91461 0 0 0 0 0 255
0.790554 0.128561 1.83168 0 0 0 0 0 255
0.734726 0.126219 1.74875 0 0 0 0 0 255
0.678899 0.123878 1.66581 0 0 0 0 0 255
0.623071 0.121536 1.58288 0 0 0 0 0 255
0.567243 0.119194 1.49995 0 0 0 0 0 255
0.511416 0.116853 1.41702 0 0 0 0 0 255
0.455588 0.114511 1.33408 0 0 0 0 0 255
0.39976 0.11217 1.25115 0 0 0 0 0 255
0.343932 0.109828 1.16822 0 0 0 0 0 255
0.288105 0.107487 1.08529 0 0 0 0 0 255
0.232277 0.105145 1.00235 0 0 0 0 0 255
0.176449 0.102803 0.919422 0 0 0 0 0 255
0.120622 0.100462 0.83649 0 0 0 0 0 255
0.0647939 0.0981202 0.753558 0 0 0 0 0 255
0.0089662 0.0957787 0.670625 0 0 0 0 0 255
-0.0468615 0.0934371 0.587693 0 0 0 0 0 255
-0.102689 0.0910955 0.50476 0 0 0 0 0 255
-0.158517 0.088754 0.421828 0 0 0 0 0 255
-0.214345 0.0864124 0.338896 0 0 0 0 0 255
-0.270172 0.0840708 0.255963 0 0 0 0 0 255
-0.326 0.0817293 0.173031 0 0 0 0 0 255
-0.381828 0.0793877 0.0900984 0 0 0 0 0 255
-0.437656 0.0770461 0.00716598 0 0 0 0 0 255
-0.493483 0.0747045 -0.0757664 0 0 0 0 0 255
-0.549311 0.072363 -0.158699 0 0 0 0 0 255
-0.605139 0.0700214 -0.241631 0 0 0 0 0 255
-0.660966 0.0676798 -0.324564 0 0 0 0 0 255
-0.716794 0.0653383 -0.407496 0 0 0 0 0 255
-0.772622 0.0629967 -0.490429 0 0 0 0 0 255
-0.82845 0.0606551 -0.573361 0 0 0 0 0 255
-0.884277 0.0583135 -0.656293 0 0 0 0 0 255
-0.940105 0.055972 -0.739226 0 0 0 0 0 255
-0.995933 0.0536304 -0.822158 0 0 0 0 0 255
-1.05176 0.0512888 -0.90509 0 0 0 0 0 255
-1.10759 0.0489473 -0.988023 0 0 0 0 0 255
-1.16342 0.0466057 -1.07095 0 0 0 0 0 255
-1.21924 0.0442641 -1.15389 0 0 0 0 0 255
-1.27507 0.0419226 -1.23682 0 0 0 0 0 255
-1.3309 0.039581 -1.31975 0 0 0 0 0 255
-1.38673 0.0372394 -1.40268 0 0 0 0 0 255
-1.44255 0.0348979 -1.48562 0 0 0 0 0 255
-1.49838 0.0325563 -1.56855 0 0 0 0 0 255
-1.55421 0.0302147 -1.65148 0 0 0 0 0 255
-1.61004 0.0278732 -1.73441 0 0 0 0 0 255
-1.66586 0.0255316 -1.81735 0 0 0 0 0 255
-1.72169 0.02319 -1.90028 0 0 0 0 0 255
-1.77752 0.0208485 -1.98321 0 0 0 0 0 255
-1.83335 0.0185069 -2.06614 0 0 0 0 0 255
-1.88918 0.0161653 -2.14908 0 0 0 0 0 255
-1.945 0.0138237 -2.23201 0 0 0 0 0 255
-2.00083 0.0114822 -2.31494 0 0 0 0 0 255
-2.05666 0.00914061 -2.39787 0 0 0 0 0 255
-2.11249 0.00679904 -2.4808 0 0 0 0 0 255
-2.16831 0.00445747 -2.56374 0 0 0 0 0 255
-2.22414 0.0021159 -2.64667 0 0 0 0 0 255
-2.27997 -0.000225665 -2.7296 0 0 0 0 0 255
-2.3358 -0.00256723 -2.81253 0 0 0 0 0 255
-2.39162 -0.0049088 -2.89547 0 0 0 0 0 255
-2.44745 -0.00725037 -2.9784 0 0 0 0 0 255
-2.50328 -0.00959194 -3.06133 0 0 0 0 0 255
-2.55911 -0.0119335 -3.14426 0 0 0 0 0 255
-2.61493 -0.0142751 -3.2272 0 0 0 0 0 255
-2.67076 -0.0166166 -3.31013 0 0 0 0 0 255
-2.72659 -0.0189582 -3.39306 0 0 0 0 0 255
-2.78242 -0.0212998 -3.47599 0 0 0 0 0 255
-2.83825 -0.0236413 -3.55892 0 0 0 0 0 255
-2.89407 -0.0259829 -3.64186 0 0 0 0 0 255
-2.9499 -0.0283245 -3.72479 0 0 0 0 0 255
-3.00573 -0.0306661 -3.80772 0 0 0 0 0 255
-3.06156 -0.0330076 -3.89065 0 0 0 0 0 255
-3.11738 -0.0353492 -3.97359 0 0 0 0 0 255
-3.17321 -0.0376908 -4.05652 0 0 0 0 0 255
-3.22904 -0.0400323 -4.13945 0 0 0 0 0 255
-3.28487 -0.0423739 -4.22238 0 0 0 0 0 255
-3.34069 -0.0447155 -4.30532 0 0 0 0 0 255
-3.39652 -0.047057 -4.38825 0 0 0 0 0 255
-3.45235 -0.0493986 -4.47118 0 0 0 0 0 255
-3.50818 -0.0517402 -4.55411 0 0 0 0 0 255
-3.564 -0.0540817 -4.63705 0 0 0 0 0 255
-3.61983 -0.0564233 -4.71998 0 0 0 0 0 255
-3.67566 -0.0587649 -4.80291 0 0 0 0 0 255
-3.73149 -0.0611064 -4.88584 0 0 0 0 0 255
-3.78732 -0.063448 -4.96877 0 0 0 0 0 255
-3.84314 -0.0657896 -5.05171 0 0 0 0 0 255
-3.89897 -0.0681311 -5.13464 0 0 0 0 0 255
-3.9548 -0.0704727 -5.21757 0 0 0 0 0 255
-4.01063 -0.0728143 -5.3005 0 0 0 0 0 255
-4.06645 -0.0751558 -5.38344 0 0 0 0 0 255
-4.12228 -0.0774974 -5.46637 0 0 0 0 0 255
-4.17811 -0.079839 -5.5493 0 0 0 0 0 255
-4.23394 -0.0821805 -5.63223 0 0 0 0 0 255
-4.28976 -0.0845221 -5.71517 0 0 0 0 0 255
-4.34559 -0.0868637 -5.7981 0 0 0 0 0 255
-4.40142 -0.0892053 -5.88103 0 0 0 0 0 255
-4.45725 -0.0915469 -5.96396 0 0 0 0 0 255
-4.51308 -0.0938884 -6.0469 0 0 0 0 0 255
-4.5689 -0.09623 -6.12983 0 0 0 0 0 255
-4.62473 -0.0985716 -6.21276 0 0 0 0 0 255
-4.68056 -0.100913 -6.29569 0 0 0 0 0 255
-4.73639 -0.103255 -6.37863 0 0 0 0 0 255
-4.79222 -0.105596 -6.46156 0 0 0 0 0 255
-4.84804 -0.107938 -6.54449 0 0 0 0 0 255
-4.90387 -0.110279 -6.62743 0 0 0 0 0 255
-4.9597 -0.112621 -6.71036 0 0 0 0 0 255
-5.01553 -0.114963 -6.79329 0 0 0 0 0 255
-5.07136 -0.117304 -6.87622 0 0 0 0 0 255
-5.12718 -0.119646 -6.95916 0 0 0 0 0 255
-5.18301 -0.121987 -7.04209 0 0 0 0 0 255
-5.23884 -0.124329 -7.12502 0 0 0 0 0 255
-5.29467 -0.126671 -7.20795 0 0 0 0 0 255
-2.58593 -0.0673255 11.6061 0 0 0 0 0 255
-2.56669 -0.0668085 11.508 0 0 0 0 0 255
-2.54746 -0.0662916 11.4099 0 0 0 0 0 255
-2.52822 -0.0657746 11.3117 0 0 0 0 0 255
-2.50898 -0.0652577 11.2136 0 0 0 0 0 255
-2.48974 -0.0647407 11.1155 0 0 0 0 0 255
-2.47051 -0.0642238 11.0174 0 0 0 0 0 255
-2.45127 -0.0637068 10.9192 0 0 0 0 0 255
-2.43203 -0.0631899 10.8211 0 0 0 0 0 255
-2.41279 -0.0626729 10.723 0 0 0 0 0 255
-2.39355 -0.062156 10.6248 0 0 0 0 0 255
-2.37432 -0.061639 10.5267 0 0 0 0 0 255
-2.35508 -0.0611221 10.4286 0 0 0 0 0 255
-2.33584 -0.0606051 10.3304 0 0 0 0 0 255
-2.3166 -0.0600882 10.2323 0 0 0 0 0 255
-2.29737 -0.0595713 10.1342 0 0 0 0 0 255
-2.27813 -0.0590543 10.036 0 0 0 0 0 255
-2.25889 -0.0585374 9.93791 0 0 0 0 0 255
-2.23965 -0.0580204 9.83978 0 0 0 0 0 255
-2.22041 -0.0575035 9.74165 0 0 0 0 0 255
-2.20118 -0.0569865 9.64352 0 0 0 0 0 255
-2.18194 -0.0564696 9.54539 0 0 0 0 0 255
-2.1627 -0.0559526 9.44726 0 0 0 0 0 255
-2.14346 -0.0554357 9.34913 0 0 0 0 0 255
-2.12423 -0.0549187 9.251 0 0 0 0 0 255
-2.10499 -0.0544018 9.15287 0 0 0 0 0 255
-2.08575 -0.0538848 9.05474 0 0 0 0 0 255
-2.06651 -0.0533679 8.9566 0 0 0 0 0 255
-2.04728 -0.0528509 8.85847 0 0 0 0 0 255
-2.02804 -0.052334 8.76034 0 0 0 0 0 255
-2.0088 -0.0518171 8.66221 0 0 0 0 0 255
-1.98956 -0.0513001 8.56408 0 0 0 0 0 255
-1.97033 -0.0507832 8.46595 0 0 0 0 0 255
-1.95109 -0.0502662 8.36782 0 0 0 0 0 255
-1.93185 -0.0497493 8.26969 0 0 0 0 0 255
-1.91261 -0.0492323 8.17156 0 0 0 0 0 255
-1.89337 -0.0487154 8.07343 0 0 0 0 0 255
-1.87414 -0.0481984 7.9753 0 0 0 0 0 255
-1.8549 -0.0476815 7.87717 0 0 0 0 0 255
-1.83566 -0.0471645 7.77904 0 0 0 0 0 255
-1.81642 -0.0466476 7.68091 0 0 0 0 0 255
-1.79719 -0.0461306 7.58278 0 0 0 0 0 255
-1.77795 -0.0456137 7.48464 0 0 0 0 0 255
-1.75871 -0.0450968 7.38651 0 0 0 0 0 255
-1.73947 -0.0445798 7.28838 0 0 0 0 0 255
-1.72024 -0.0440629 7.19025 0 0 0 0 0 255
-1.701 -0.0435459 7.09212 0 0 0 0 0 255
-1.68176 -0.043029 6.99399 0 0 0 0 0 255
-1.66252 -0.042512 6.89586 0 0 0 0 0 255
-1.64329 -0.0419951 6.79773 0 0 0 0 0 255
-1.62405 -0.0414781 6.6996 0 0 0 0 0 255
-1.60481 -0.0409612 6.60147 0 0 0 0 0 255
-1.58557 -0.0404442 6.50334 0 0 0 0 0 255
-1.56633 -0.0399273 6.40521 0 0 0 0 0 255
-1.5471 -0.0394104 6.30708 0 0 0 0 0 255
-1.52786 -0.0388934 6.20895 0 0 0 0 0 255
-1.50862 -0.0383765 6.11082 0 0 0 0 0 255
-1.48938 -0.0378595 6.01268 0 0 0 0 0 255
-1.47015 -0.0373426 5.91455 0 0 0 0 0 255
-1.45091 -0.0368256 5.81642 0 0 0 0 0 255
-1.43167 -0.0363087 5.71829 0 0 0 0 0 255
-1.41243 -0.0357917 5.62016 0 0 0 0 0 255
-1.3932 -0.0352748 5.52203 0 0 0 0 0 255
-1.37396 -0.0347578 5.4239 0 0 0 0 0 255
-1.35472 -0.0342409 5.32577 0 0 0 0 0 255
-1.33548 -0.0337239 5.22764 0 0 0 0 0 255
-1.31625 -0.033207 5.12951 0 0 0 0 0 255
-1.29701 -0.0326901 5.03138 0 0 0 0 0 255
-1.27777 -0.0321731 4.93325 0 0 0 0 0 255
-1.25853 -0.0316562 4.83512 0 0 0 0 0 255
-1.23929 -0.0311392 4.73699 0 0 0 0 0 255
-1.22006 -0.0306223 4.63886 0 0 0 0 0 255
-1.20082 -0.0301053 4.54072 0 0 0 0 0 255
-1.18158 -0.0295884 4.44259 0 0 0 0 0 255
-1.16234 -0.0290714 4.34446 0 0 0 0 0 255
-1.14311 -0.0285545 4.24633 0 0 0 0 0 255
-1.12387 -0.0280375 4.1482 0 0 0 0 0 255
-1.10463 -0.0275206 4.05007 0 0 0 0 0 255
-1.08539 -0.0270037 3.95194 0 0 0 0 0 255
-1.06616 -0.0264867 3.85381 0 0 0 0 0 255
-1.04692 -0.0259698 3.75568 0 0 0 0 0 255
-1.02768 -0.0254528 3.65755 0 0 0 0 0 255
-1.00844 -0.0249359 3.55942 0 0 0 0 0 255
-0.989205 -0.0244189 3.46129 0 0 0 0 0 255
-0.969967 -0.023902 3.36316 0 0 0 0 0 255
-0.95073 -0.023385 3.26503 0 0 0 0 0 255
-0.931492 -0.0228681 3.16689 0 0 0 0 0 255
-0.912254 -0.0223511 3.06876 0 0 0 0 0 255
-0.893017 -0.0218342 2.97063 0 0 0 0 0 255
-0.873779 -0.0213172 2.8725 0 0 0 0 0 255
-0.854541 -0.0208003 2.77437 0 0 0 0 0 255
-0.835304 -0.0202833 2.67624 0 0 0 0 0 255
-0.816066 -0.0197664 2.57811 0 0 0 0 0 255
-0.796828 -0.0192495 2.47998 0 0 0 0 0 255
-0.777591 -0.0187325 2.38185 0 0 0 0 0 255
-0.758353 -0.0182156 2.28372 0 0 0 0 0 255
-0.739115 -0.0176986 2.18559 0 0 0 0 0 255
-0.719878 -0.0171817 2.08746 0 0 0 0 0 255
-0.70064 -0.0166647 1.98933 0 0 0 0 0 255
-0.681402 -0.0161478 1.89119 0 0 0 0 0 255
-0.662165 -0.0156308 1.79306 0 0 0 0 0 255
-0.642927 -0.0151139 1.69493 0 0 0 0 0 255
-0.623689 -0.0145969 1.5968 0 0 0 0 0 255
-0.604452 -0.01408 1.49867 0 0 0 0 0 255
-0.585214 -0.013563 1.40054 0 0 0 0 0 255
-0.565976 -0.0130461 1.30241 0 0 0 0 0 255
-0.546739 -0.0125292 1.20428 0 0 0 0 0 255
-0.527501 -0.0120122 1.10615 0 0 0 0 0 255
-0.508263 -0.0114953 1.00802 0 0 0 0 0 255
-0.489026 -0.0109783 0.909887 0 0 0 0 0 255
-0.469788 -0.0104614 0.811756 0 0 0 0 0 255
-0.45055 -0.00994442 0.713625 0 0 0 0 0 255
-0.431313 -0.00942747 0.615495 0 0 0 0 0 255
-0.412075 -0.00891053 0.517364 0 0 0 0 0 255
-0.392837 -0.00839358 0.419233 0 0 0 0 0 255
-0.3736 -0.00787663 0.321102 0 0 0 0 0 255
-0.354362 -0.00735969 0.222971 0 0 0 0 0 255
-0.335124 -0.00684274 0.124841 0 0 0 0 0 255
-0.315887 -0.00632579 0.0267099 0 0 0 0 0 255
-0.296649 -0.00580885 -0.0714209 0 0 0 0 0 255
-0.277411 -0.0052919 -0.169552 0 0 0 0 0 255
-0.258174 -0.00477495 -0.267682 0 0 0 0 0 255
-0.238936 -0.00425801 -0.365813 0 0 0 0 0 255
-0.219698 -0.00374106 -0.463944 0 0 0 0 0 255
-0.200461 -0.00322412 -0.562074 0 0 0 0 0 255
-0.181223 -0.00270717 -0.660205 0 0 0 0 0 255
-0.161985 -0.00219023 -0.758336 0 0 0 0 0 255
-0.142748 -0.00167328 -0.856466 0 0 0 0 0 255
-0.12351 -0.00115633 -0.954597 0 0 0 0 0 255
-0.104272 -0.000639388 -1.05273 0 0 0 0 0 255
-0.0850347 -0.000122442 -1.15086 0 0 0 0 0 255
-0.0657971 0.000394504 -1.24899 0 0 0 0 0 255
-0.0465594 0.00091145 -1.34712 0 0 0 0 0 255
-0.0273218 0.0014284 -1.44525 0 0 0 0 0 255
-0.00808414 0.00194534 -1.54338 0 0 0 0 0 255
0.0111535 0.00246229 -1.64151 0 0 0 0 0 255
0.0303912 0.00297923 -1.73964 0 0 0 0 0 255
0.0496288 0.00349618 -1.83777 0 0 0 0 0 255
0.0688665 0.00401313 -1.9359 0 0 0 0 0 255
0.0881041 0.00453007 -2.03403 0 0 0 0 0 255
0.107342 0.00504702 -2.13217 0 0 0 0 0 255
0.126579 0.00556396 -2.2303 0 0 0 0 0 255
0.145817 0.00608091 -2.32843 0 0 0 0 0 255
0.165055 0.00659786 -2.42656 0 0 0 0 0 255
0.184292 0.0071148 -2.52469 0 0 0 0 0 255
0.20353 0.00763175 -2.62282 0 0 0 0 0 255
0.222768 0.00814869 -2.72095 0 0 0 0 0 255
0.242005 0.00866564 -2.81908 0 0 0 0 0 255
0.261243 0.00918259 -2.91721 0 0 0 0 0 255
0.280481 0.00969953 -3.01534 0 0 0 0 0 255
0.299718 0.0102165 -3.11347 0 0 0 0 0 255
0.318956 0.0107334 -3.2116 0 0 0 0 0 255
0.338194 0.0112504 -3.30973 0 0 0 0 0 255
0.357431 0.0117673 -3.40786 0 0 0 0 0 255
0.376669 0.0122843 -3.50599 0 0 0 0 0 255
0.395907 0.0128012 -3.60413 0 0 0 0 0 255
0.415144 0.0133182 -3.70226 0 0 0 0 0 255
0.434382 0.0138351 -3.80039 0 0 0 0 0 255
0.453619 0.014352 -3.89852 0 0 0 0 0 255
0.472857 0.014869 -3.99665 0 0 0 0 0 255
0.492095 0.0153859 -4.09478 0 0 0 0 0 255
0.511332 0.0159029 -4.19291 0 0 0 0 0 255
0.53057 0.0164198 -4.29104 0 0 0 0 0 255
0.549808 0.0169368 -4.38917 0 0 0 0 0 255
0.569045 0.0174537 -4.4873 0 0 0 0 0 255
0.588283 0.0179707 -4.58543 0 0 0 0 0 255
0.607521 0.0184876 -4.68356 0 0 0 0 0 255
0.626758 0.0190046 -4.78169 0 0 0 0 0 255
0.645996 0.0195215 -4.87982 0 0 0 0 0 255
0.665234 0.0200384 -4.97795 0 0 0 0 0 255
0.684471 0.0205554 -5.07609 0 0 0 0 0 255
0.703709 0.0210723 -5.17422 0 0 0 0 0 255
0.722947 0.0215893 -5.27235 0 0 0 0 0 255
0.742184 0.0221062 -5.37048 0 0 0 0 0 255
0.761422 0.0226232 -5.46861 0 0 0 0 0 255
0.78066 0.0231401 -5.56674 0 0 0 0 0 255
0.799897 0.0236571 -5.66487 0 0 0 0 0 255
0.819135 0.024174 -5.763 0 0 0 0 0 255
0.838372 0.024691 -5.86113 0 0 0 0 0 255
0.85761 0.0252079 -5.95926 0 0 0 0 0 255
0.876848 0.0257249 -6.05739 0 0 0 0 0 255
0.896085 0.0262418 -6.15552 0 0 0 0 0 255
0.915323 0.0267587 -6.25365 0 0 0 0 0 255
0.934561 0.0272757 -6.35178 0 0 0 0 0 255
0.953799 0.0277926 -6.44992 0 0 0 0 0 255
0.973036 0.0283096 -6.54805 0 0 0 0 0 255
0.992274 0.0288265 -6.64618 0 0 0 0 0 255
1.01151 0.0293435 -6.74431 0 0 0 0 0 255
1.03075 0.0298604 -6.84244 0 0 0 0 0 255
1.04999 0.0303774 -6.94057 0 0 0 0 0 255
1.06923 0.0308943 -7.0387 0 0 0 0 0 255
1.08846 0.0314113 -7.13683 0 0 0 0 0 255
1.1077 0.0319282 -7.23496 0 0 0 0 0 255
1.12694 0.0324452 -7.3331 0 0 0 0 0 255
1.14618 0.0329621 -7.43123 0 0 0 0 0 255
1.16541 0.0334791 -7.52936 0 0 0 0 0 255
1.18465 0.033996 -7.62749 0 0 0 0 0 255
1.20389 0.034513 -7.72562 0 0 0 0 0 255
1.22313 0.0350299 -7.82375 0 0 0 0 0 255
1.24236 0.0355469 -7.92188 0 0 0 0 0 255
-0.379864 0.0548544 0.152839 0 0 0 255 255 0
-4.01007 0.706687 10.2346 0 0 0 255 255 255
-3.97116 0.700075 10.1427 0 0 0 255 255 255
-3.93225 0.693464 10.0508 0 0 0 255 255 255
-3.89333 0.686853 9.95896 0 0 0 255 255 255
-3.85442 0.680242 9.86708 0 0 0 255 255 255
-3.81551 0.673631 9.7752 0 0 0 255 255 255
-3.77659 0.667019 9.68331 0 0 0 255 255 255
-3.73768 0.660408 9.59143 0 0 0 255 255 255
-3.69877 0.653797 9.49955 0 0 0 255 255 255
-3.65986 0.647186 9.40767 0 0 0 255 255 255
-3.62094 0.640575 9.31579 0 0 0 255 255 255
-3.58203 0.633963 9.22391 0 0 0 255 255 255
-3.54312 0.627352 9.13203 0 0 0 255 255 255
-3.50421 0.620741 9.04015 0 0 0 255 255 255
-3.46529 0.61413 8.94826 0 0 0 255 255 255
-3.42638 0.607518 8.85638 0 0 0 255 255 255
-3.38747 0.600907 8.7645 0 0 0 255 255 255
-3.34856 0.594296 8.67262 0 0 0 255 255 255
-3.30964 0.587685 8.58074 0 0 0 255 255 255
-3.27073 0.581074 8.48886 0 0 0 255 255 255
-3.23182 0.574462 8.39698 0 0 0 255 255 255
-3.1929 0.567851 8.3051 0 0 0 255 255 255
-3.15399 0.56124 8.21322 0 0 0 255 255 255
-3.11508 0.554629 8.12133 0 0 0 255 255 255
-3.07617 0.548018 8.02945 0 0 0 255 255 255
-3.03725 0.541406 7.93757 0 0 0 255 255 255
-2.99834 0.534795 7.84569 0 0 0 255 255 255
-2.95943 0.528184 7.75381 0 0 0 255 255 255
-2.92052 0.521573 7.66193 0 0 0 255 255 255
-2.8816 0.514962 7.57005 0 0 0 255 255 255
-2.84269 0.508351 7.47817 0 0 0 255 255 255
-2.80378 0.501739 7.38629 0 0 0 255 255 255
-2.76487 0.495128 7.29441 0 0 0 255 255 255
-2.72595 0.488517 7.20253 0 0 0 255 255 255
-2.68704 0.481906 7.11065 0 0 0 255 255 255
-2.64813 0.475295 7.01876 0 0 0 255 255 255
-2.60922 0.468683 6.92688 0 0 0 255 255 255
-2.5703 0.462072 6.835 0 0 0 255 255 255
-2.53139 0.455461 6.74312 0 0 0 255 255 255
-2.49248 0.44885 6.65124 0 0 0 255 255 255
-2.45357 0.442239 6.55936 0 0 0 255 255 255
-2.41465 0.435628 6.46748 0 0 0 255 255 255
-2.37574 0.429016 6.3756 0 0 0 255 255 255
-2.33683 0.422405 6.28372 0 0 0 255 255 255
-2.29792 0.415794 6.19184 0 0 0 255 255 255
-2.259 0.409183 6.09996 0 0 0 255 255 255
-2.22009 0.402572 6.00807 0 0 0 255 255 255
-2.18118 0.39596 5.91619 0 0 0 255 255 255
-2.14227 0.389349 5.82431 0 0 0 255 255 255
-2.10335 0.382738 5.73243 0 0 0 255 255 255
-2.06444 0.376127 5.64055 0 0 0 255 255 255
-2.02553 0.369516 5.54867 0 0 0 255 255 255
-1.98662 0.362904 5.45679 0 0 0 255 255 255
-1.9477 0.356293 5.36491 0 0 0 255 255 255
-1.90879 0.349682 5.27303 0 0 0 255 255 255
-1.86988 0.343071 5.18115 0 0 0 255 255 255
-1.83097 0.33646 5.08927 0 0 0 255 255 255
-1.79205 0.329849 4.99739 0 0 0 255 255 255
-1.75314 0.323237 4.9055 0 0 0 255 255 255
-1.71423 0.316626 4.81362 0 0 0 255 255 255
-1.67532 0.310015 4.72174 0 0 0 255 255 255
-1.6364 0.303404 4.62986 0 0 0 255 255 255
-1.59749 0.296793 4.53798 0 0 0 255 255 255
-1.55858 0.290181 4.4461 0 0 0 255 255 255
-1.51967 0.28357 4.35422 0 0 0 255 255 255
-1.48075 0.276959 4.26234 0 0 0 255 255 255
-1.44184 0.270348 4.17046 0 0 0 255 255 255
-1.40293 0.263737 4.07858 0 0 0 255 255 255
-1.36402 0.257126 3.9867 0 0 0 255 255 255
-1.3251 0.250514 3.89482 0 0 0 255 255 255
-1.28619 0.243903 3.80293 0 0 0 255 255 255
-1.24728 0.237292 3.71105 0 0 0 255 255 255
-1.20837 0.230681 3.61917 0 0 0 255 255 255
-1.16945 0.22407 3.52729 0 0 0 255 255 255
-1.13054 0.217458 3.43541 0 0 0 255 255 255
-1.09163 0.210847 3.34353 0 0 0 255 255 255
-1.05272 0.204236 3.25165 0 0 0 255 255 255
-1.0138 0.197625 3.15977 0 0 0 255 255 255
-0.974891 0.191014 3.06789 0 0 0 255 255 255
-0.935979 0.184402 2.97601 0 0 0 255 255 255
-0.897066 0.177791 2.88413 0 0 0 255 255 255
-0.858154 0.17118 2.79225 0 0 0 255 255 255
-0.819241 0.164569 2.70036 0 0 0 255 255 255
-0.780328 0.157958 2.60848 0 0 0 255 255 255
-0.741416 0.151347 2.5166 0 0 0 255 255 255
-0.702503 0.144735 2.42472 0 0 0 255 255 255
-0.663591 0.138124 2.33284 0 0 0 255 255 255
-0.624678 0.131513 2.24096 0 0 0 255 255 255
-0.585766 0.124902 2.14908 0 0 0 255 255 255
-0.546853 0.118291 2.0572 0 0 0 255 255 255
-0.50794 0.111679 1.96532 0 0 0 255 255 255
-0.469028 0.105068 1.87344 0 0 0 255 255 255
-0.430115 0.098457 1.78155 0 0 0 255 255 255
-0.391203 0.0918458 1.68967 0 0 0 255 255 255
-0.35229 0.0852346 1.59779 0 0 0 255 255 255
-0.313378 0.0786234 1.50591 0 0 0 255 255 255
-0.274465 0.0720122 1.41403 0 0 0 255 255 255
-0.235553 0.065401 1.32215 0 0 0 255 255 255
-0.19664 0.0587898 1.23027 0 0 0 255 255 255
-0.157727 0.0521786 1.13839 0 0 0 255 255 255
-0.118815 0.0455674 1.04651 0 0 0 255 255 255
-0.0799023 0.0389562 0.954626 0 0 0 255 255 255
-0.0409898 0.0323451 0.862745 0 0 0 255 255 255
-0.00207721 0.0257339 0.770865 0 0 0 255 255 255
0.0368353 0.0191227 0.678984 0 0 0 255 255 255
0.0757479 0.0125115 0.587103 0 0 0 255 255 255
0.11466 0.00590028 0.495222 0 0 0 255 255 255
