ply
format ascii 1.0
element vertex 400
property float x
property float y
property float z
property float nx
property float ny
property float nz
property uchar red
property uchar green
property uchar blue
end_header
-0.803842 1.38791 0.00831568 0 0 0 255 0 0
-0.826682 1.29171 0.023236 0 0 0 255 0 0
-0.849523 1.1955 0.0381564 0 0 0 255 0 0
-0.872363 1.09929 0.0530768 0 0 0 255 0 0
-0.895203 1.00309 0.0679972 0 0 0 255 0 0
-0.918043 0.906881 0.0829175 0 0 0 255 0 0
-0.940883 0.810674 0.0978379 0 0 0 255 0 0
-0.963724 0.714468 0.112758 0 0 0 255 0 0
-0.986564 0.618261 0.127679 0 0 0 255 0 0
-1.0094 0.522055 0.142599 0 0 0 255 0 0
-1.03224 0.425848 0.157519 0 0 0 255 0 0
-1.05508 0.329641 0.17244 0 0 0 255 0 0
-1.07792 0.233435 0.18736 0 0 0 255 0 0
-1.10077 0.137228 0.20228 0 0 0 255 0 0
-1.12361 0.0410218 0.217201 0 0 0 255 0 0
-1.14645 -0.0551848 0.232121 0 0 0 255 0 0
-1.16929 -0.151391 0.247042 0 0 0 255 0 0
-1.19213 -0.247598 0.261962 0 0 0 255 0 0
-1.21497 -0.343805 0.276882 0 0 0 255 0 0
-1.23781 -0.440011 0.291803 0 0 0 255 0 0
-0.710524 1.37065 0.0398392 0 0 0 255 0 0
-0.733365 1.27444 0.0547596 0 0 0 255 0 0
-0.756205 1.17824 0.0696799 0 0 0 255 0 0
-0.779045 1.08203 0.0846003 0 0 0 255 0 0
-0.801885 0.985822 0.0995207 0 0 0 255 0 0
-0.824726 0.889615 0.114441 0 0 0 255 0 0
-0.847566 0.793409 0.129361 0 0 0 255 0 0
-0.870406 0.697202 0.144282 0 0 0 255 0 0
-0.893246 0.600996 0.159202 0 0 0 255 0 0
-0.916087 0.504789 0.174123 0 0 0 255 0 0
-0.938927 0.408583 0.189043 0 0 0 255 0 0
-0.961767 0.312376 0.203963 0 0 0 255 0 0
-0.984607 0.216169 0.218884 0 0 0 255 0 0
-1.00745 0.119963 0.233804 0 0 0 255 0 0
-1.03029 0.0237563 0.248724 0 0 0 255 0 0
-1.05313 -0.0724503 0.263645 0 0 0 255 0 0
-1.07597 -0.168657 0.278565 0 0 0 255 0 0
-1.09881 -0.264863 0.293485 0 0 0 255 0 0
-1.12165 -0.36107 0.308406 0 0 0 255 0 0
-1.14449 -0.457277 0.323326 0 0 0 255 0 0
-0.617207 1.35338 0.0713627 0 0 0 255 0 0
-0.640047 1.25718 0.0862831 0 0 0 255 0 0
-0.662887 1.16097 0.101204 0 0 0 255 0 0
-0.685728 1.06476 0.116124 0 0 0 255 0 0
-0.708568 0.968557 0.131044 0 0 0 255 0 0
-0.731408 0.87235 0.145965 0 0 0 255 0 0
-0.754248 0.776143 0.160885 0 0 0 255 0 0
-0.777089 0.679937 0.175805 0 0 0 255 0 0
-0.799929 0.58373 0.190726 0 0 0 255 0 0
-0.822769 0.487524 0.205646 0 0 0 255 0 0
-0.845609 0.391317 0.220566 0 0 0 255 0 0
-0.868449 0.295111 0.235487 0 0 0 255 0 0
-0.89129 0.198904 0.250407 0 0 0 255 0 0
-0.91413 0.102697 0.265328 0 0 0 255 0 0
-0.93697 0.0064908 0.280248 0 0 0 255 0 0
-0.95981 -0.0897158 0.295168 0 0 0 255 0 0
-0.982651 -0.185922 0.310089 0 0 0 255 0 0
-1.00549 -0.282129 0.325009 0 0 0 255 0 0
-1.02833 -0.378336 0.339929 0 0 0 255 0 0
-1.05117 -0.474542 0.35485 0 0 0 255 0 0
-0.523889 1.33612 0.102886 0 0 0 255 0 0
-0.546729 1.23991 0.117807 0 0 0 255 0 0
-0.56957 1.1437 0.132727 0 0 0 255 0 0
-0.59241 1.0475 0.147647 0 0 0 255 0 0
-0.61525 0.951291 0.162568 0 0 0 255 0 0
-0.63809 0.855085 0.177488 0 0 0 255 0 0
-0.660931 0.758878 0.192409 0 0 0 255 0 0
-0.683771 0.662671 0.207329 0 0 0 255 0 0
-0.706611 0.566465 0.222249 0 0 0 255 0 0
-0.729451 0.470258 0.23717 0 0 0 255 0 0
-0.752292 0.374052 0.25209 0 0 0 255 0 0
-0.775132 0.277845 0.26701 0 0 0 255 0 0
-0.797972 0.181638 0.281931 0 0 0 255 0 0
-0.820812 0.0854319 0.296851 0 0 0 255 0 0
-0.843652 -0.0107747 0.311771 0 0 0 255 0 0
-0.866493 -0.106981 0.326692 0 0 0 255 0 0
-0.889333 -0.203188 0.341612 0 0 0 255 0 0
-0.912173 -0.299394 0.356533 0 0 0 255 0 0
-0.935013 -0.395601 0.371453 0 0 0 255 0 0
-0.957854 -0.491808 0.386373 0 0 0 255 0 0
-0.430572 1.31885 0.13441 0 0 0 255 0 0
-0.453412 1.22265 0.14933 0 0 0 255 0 0
-0.476252 1.12644 0.164251 0 0 0 255 0 0
-0.499092 1.03023 0.179171 0 0 0 255 0 0
-0.521933 0.934026 0.194091 0 0 0 255 0 0
-0.544773 0.837819 0.209012 0 0 0 255 0 0
-0.567613 0.741612 0.223932 0 0 0 255 0 0
-0.590453 0.645406 0.238852 0 0 0 255 0 0
-0.613294 0.549199 0.253773 0 0 0 255 0 0
-0.636134 0.452993 0.268693 0 0 0 255 0 0
-0.658974 0.356786 0.283614 0 0 0 255 0 0
-0.681814 0.26058 0.298534 0 0 0 255 0 0
-0.704654 0.164373 0.313454 0 0 0 255 0 0
-0.727495 0.0681664 0.328375 0 0 0 255 0 0
-0.750335 -0.0280402 0.343295 0 0 0 255 0 0
-0.773175 -0.124247 0.358215 0 0 0 255 0 0
-0.796015 -0.220453 0.373136 0 0 0 255 0 0
-0.818856 -0.31666 0.388056 0 0 0 255 0 0
-0.841696 -0.412867 0.402976 0 0 0 255 0 0
-0.864536 -0.509073 0.417897 0 0 0 255 0 0
-0.337254 1.30159 0.165933 0 0 0 255 0 0
-0.360094 1.20538 0.180854 0 0 0 255 0 0
-0.382935 1.10917 0.195774 0 0 0 255 0 0
-0.405775 1.01297 0.210694 0 0 0 255 0 0
-0.428615 0.91676 0.225615 0 0 0 255 0 0
-0.451455 0.820554 0.240535 0 0 0 255 0 0
-0.474295 0.724347 0.255456 0 0 0 255 0 0
-0.497136 0.62814 0.270376 0 0 0 255 0 0
-0.519976 0.531934 0.285296 0 0 0 255 0 0
-0.542816 0.435727 0.300217 0 0 0 255 0 0
-0.565656 0.339521 0.315137 0 0 0 255 0 0
-0.588497 0.243314 0.330057 0 0 0 255 0 0
-0.611337 0.147108 0.344978 0 0 0 255 0 0
-0.634177 0.0509009 0.359898 0 0 0 255 0 0
-0.657017 -0.0453056 0.374818 0 0 0 255 0 0
-0.679858 -0.141512 0.389739 0 0 0 255 0 0
-0.702698 -0.237719 0.404659 0 0 0 255 0 0
-0.725538 -0.333925 0.41958 0 0 0 255 0 0
-0.748378 -0.430132 0.4345 0 0 0 255 0 0
-0.771219 -0.526339 0.44942 0 0 0 255 0 0
-0.243937 1.28432 0.197457 0 0 0 255 0 0
-0.266777 1.18811 0.212377 0 0 0 255 0 0
-0.289617 1.09191 0.227298 0 0 0 255 0 0
-0.312457 0.995701 0.242218 0 0 0 255 0 0
-0.335297 0.899495 0.257138 0 0 0 255 0 0
-0.358138 0.803288 0.272059 0 0 0 255 0 0
-0.380978 0.707082 0.286979 0 0 0 255 0 0
-0.403818 0.610875 0.301899 0 0 0 255 0 0
-0.426658 0.514668 0.31682 0 0 0 255 0 0
-0.449499 0.418462 0.33174 0 0 0 255 0 0
-0.472339 0.322255 0.346661 0 0 0 255 0 0
-0.495179 0.226049 0.361581 0 0 0 255 0 0
-0.518019 0.129842 0.376501 0 0 0 255 0 0
-0.54086 0.0336355 0.391422 0 0 0 255 0 0
-0.5637 -0.0625711 0.406342 0 0 0 255 0 0
-0.58654 -0.158778 0.421262 0 0 0 255 0 0
-0.60938 -0.254984 0.436183 0 0 0 255 0 0
-0.63222 -0.351191 0.451103 0 0 0 255 0 0
-0.655061 -0.447398 0.466023 0 0 0 255 0 0
-0.677901 -0.543604 0.480944 0 0 0 255 0 0
-0.150619 1.26706 0.22898 0 0 0 255 0 0
-0.173459 1.17085 0.243901 0 0 0 255 0 0
-0.196299 1.07464 0.258821 0 0 0 255 0 0
-0.21914 0.978436 0.273741 0 0 0 255 0 0
-0.24198 0.882229 0.288662 0 0 0 255 0 0
-0.26482 0.786023 0.303582 0 0 0 255 0 0
-0.28766 0.689816 0.318503 0 0 0 255 0 0
-0.310501 0.593609 0.333423 0 0 0 255 0 0
-0.333341 0.497403 0.348343 0 0 0 255 0 0
-0.356181 0.401196 0.363264 0 0 0 255 0 0
-0.379021 0.30499 0.378184 0 0 0 255 0 0
-0.401862 0.208783 0.393104 0 0 0 255 0 0
-0.424702 0.112577 0.408025 0 0 0 255 0 0
-0.447542 0.01637 0.422945 0 0 0 255 0 0
-0.470382 -0.0798366 0.437866 0 0 0 255 0 0
-0.493222 -0.176043 0.452786 0 0 0 255 0 0
-0.516063 -0.27225 0.467706 0 0 0 255 0 0
-0.538903 -0.368456 0.482627 0 0 0 255 0 0
-0.561743 -0.464663 0.497547 0 0 0 255 0 0
-0.584583 -0.56087 0.512467 0 0 0 255 0 0
-0.0573013 1.24979 0.260504 0 0 0 255 0 0
-0.0801416 1.15358 0.275424 0 0 0 255 0 0
-0.102982 1.05738 0.290345 0 0 0 255 0 0
-0.125822 0.96117 0.305265 0 0 0 255 0 0
-0.148662 0.864964 0.320185 0 0 0 255 0 0
-0.171503 0.768757 0.335106 0 0 0 255 0 0
-0.194343 0.672551 0.350026 0 0 0 255 0 0
-0.217183 0.576344 0.364946 0 0 0 255 0 0
-0.240023 0.480137 0.379867 0 0 0 255 0 0
-0.262863 0.383931 0.394787 0 0 0 255 0 0
-0.285704 0.287724 0.409708 0 0 0 255 0 0
-0.308544 0.191518 0.424628 0 0 0 255 0 0
-0.331384 0.0953111 0.439548 0 0 0 255 0 0
-0.354224 -0.0008955 0.454469 0 0 0 255 0 0
-0.377065 -0.0971021 0.469389 0 0 0 255 0 0
-0.399905 -0.193309 0.484309 0 0 0 255 0 0
-0.422745 -0.289515 0.49923 0 0 0 255 0 0
-0.445585 -0.385722 0.51415 0 0 0 255 0 0
-0.468426 -0.481928 0.52907 0 0 0 255 0 0
-0.491266 -0.578135 0.543991 0 0 0 255 0 0
0.0360162 1.23252 0.292027 0 0 0 255 0 0
0.013176 1.13632 0.306948 0 0 0 255 0 0
-0.00966424 1.04011 0.321868 0 0 0 255 0 0
-0.0325045 0.943905 0.336789 0 0 0 255 0 0
-0.0553447 0.847698 0.351709 0 0 0 255 0 0
-0.078185 0.751492 0.366629 0 0 0 255 0 0
-0.101025 0.655285 0.38155 0 0 0 255 0 0
-0.123865 0.559079 0.39647 0 0 0 255 0 0
-0.146706 0.462872 0.41139 0 0 0 255 0 0
-0.169546 0.366665 0.426311 0 0 0 255 0 0
-0.192386 0.270459 0.441231 0 0 0 255 0 0
-0.215226 0.174252 0.456151 0 0 0 255 0 0
-0.238067 0.0780456 0.471072 0 0 0 255 0 0
-0.260907 -0.018161 0.485992 0 0 0 255 0 0
-0.283747 -0.114368 0.500913 0 0 0 255 0 0
-0.306587 -0.210574 0.515833 0 0 0 255 0 0
-0.329428 -0.306781 0.530753 0 0 0 255 0 0
-0.352268 -0.402987 0.545674 0 0 0 255 0 0
-0.375108 -0.499194 0.560594 0 0 0 255 0 0
-0.397948 -0.595401 0.575514 0 0 0 255 0 0
0.129334 1.21526 0.323551 0 0 0 255 0 0
0.106494 1.11905 0.338471 0 0 0 255 0 0
0.0836533 1.02285 0.353392 0 0 0 255 0 0
0.0608131 0.926639 0.368312 0 0 0 255 0 0
0.0379729 0.830433 0.383232 0 0 0 255 0 0
0.0151326 0.734226 0.398153 0 0 0 255 0 0
-0.00770761 0.63802 0.413073 0 0 0 255 0 0
-0.0305478 0.541813 0.427994 0 0 0 255 0 0
-0.0533881 0.445606 0.442914 0 0 0 255 0 0
-0.0762283 0.3494 0.457834 0 0 0 255 0 0
-0.0990685 0.253193 0.472755 0 0 0 255 0 0
-0.121909 0.156987 0.487675 0 0 0 255 0 0
-0.144749 0.0607801 0.502595 0 0 0 255 0 0
-0.167589 -0.0354264 0.517516 0 0 0 255 0 0
-0.190429 -0.131633 0.532436 0 0 0 255 0 0
-0.21327 -0.22784 0.547356 0 0 0 255 0 0
-0.23611 -0.324046 0.562277 0 0 0 255 0 0
-0.25895 -0.420253 0.577197 0 0 0 255 0 0
-0.28179 -0.516459 0.592118 0 0 0 255 0 0
-0.304631 -0.612666 0.607038 0 0 0 255 0 0
0.222651 1.19799 0.355074 0 0 0 255 0 0
0.199811 1.10179 0.369995 0 0 0 255 0 0
0.176971 1.00558 0.384915 0 0 0 255 0 0
0.154131 0.909374 0.399836 0 0 0 255 0 0
0.13129 0.813167 0.414756 0 0 0 255 0 0
0.10845 0.716961 0.429676 0 0 0 255 0 0
0.08561 0.620754 0.444597 0 0 0 255 0 0
0.0627697 0.524548 0.459517 0 0 0 255 0 0
0.0399295 0.428341 0.474437 0 0 0 255 0 0
0.0170893 0.332134 0.489358 0 0 0 255 0 0
-0.00575095 0.235928 0.504278 0 0 0 255 0 0
-0.0285912 0.139721 0.519199 0 0 0 255 0 0
-0.0514314 0.0435146 0.534119 0 0 0 255 0 0
-0.0742717 -0.0526919 0.549039 0 0 0 255 0 0
-0.0971119 -0.148899 0.56396 0 0 0 255 0 0
-0.119952 -0.245105 0.57888 0 0 0 255 0 0
-0.142792 -0.341312 0.5938 0 0 0 255 0 0
-0.165633 -0.437518 0.608721 0 0 0 255 0 0
-0.188473 -0.533725 0.623641 0 0 0 255 0 0
-0.211313 -0.629932 0.638561 0 0 0 255 0 0
0.315969 1.18073 0.386598 0 0 0 255 0 0
0.293129 1.08452 0.401518 0 0 0 255 0 0
0.270288 0.988315 0.416439 0 0 0 255 0 0
0.247448 0.892108 0.431359 0 0 0 255 0 0
0.224608 0.795902 0.446279 0 0 0 255 0 0
0.201768 0.699695 0.4612 0 0 0 255 0 0
0.178928 0.603489 0.47612 0 0 0 255 0 0
0.156087 0.507282 0.491041 0 0 0 255 0 0
0.133247 0.411076 0.505961 0 0 0 255 0 0
0.110407 0.314869 0.520881 0 0 0 255 0 0
0.0875666 0.218662 0.535802 0 0 0 255 0 0
0.0647264 0.122456 0.550722 0 0 0 255 0 0
0.0418861 0.0262492 0.565642 0 0 0 255 0 0
0.0190459 -0.0699574 0.580563 0 0 0 255 0 0
-0.00379431 -0.166164 0.595483 0 0 0 255 0 0
-0.0266345 -0.262371 0.610404 0 0 0 255 0 0
-0.0494748 -0.358577 0.625324 0 0 0 255 0 0
-0.072315 -0.454784 0.640244 0 0 0 255 0 0
-0.0951553 -0.55099 0.655165 0 0 0 255 0 0
-0.117995 -0.647197 0.670085 0 0 0 255 0 0
0.409287 1.16346 0.418122 0 0 0 255 0 0
0.386446 1.06726 0.433042 0 0 0 255 0 0
0.363606 0.97105 0.447962 0 0 0 255 0 0
0.340766 0.874843 0.462883 0 0 0 255 0 0
0.317926 0.778636 0.477803 0 0 0 255 0 0
0.295085 0.68243 0.492723 0 0 0 255 0 0
0.272245 0.586223 0.507644 0 0 0 255 0 0
0.249405 0.490017 0.522564 0 0 0 255 0 0
0.226565 0.39381 0.537484 0 0 0 255 0 0
0.203724 0.297603 0.552405 0 0 0 255 0 0
0.180884 0.201397 0.567325 0 0 0 255 0 0
0.158044 0.10519 0.582246 0 0 0 255 0 0
0.135204 0.00898369 0.597166 0 0 0 255 0 0
0.112363 -0.0872229 0.612086 0 0 0 255 0 0
0.0895232 -0.183429 0.627007 0 0 0 255 0 0
0.066683 -0.279636 0.641927 0 0 0 255 0 0
0.0438428 -0.375843 0.656847 0 0 0 255 0 0
0.0210026 -0.472049 0.671768 0 0 0 255 0 0
-0.00183769 -0.568256 0.686688 0 0 0 255 0 0
-0.0246779 -0.664462 0.701609 0 0 0 255 0 0
0.502604 1.1462 0.449645 0 0 0 255 0 0
0.479764 1.04999 0.464565 0 0 0 255 0 0
0.456924 0.953784 0.479486 0 0 0 255 0 0
0.434083 0.857577 0.494406 0 0 0 255 0 0
0.411243 0.761371 0.509327 0 0 0 255 0 0
0.388403 0.665164 0.524247 0 0 0 255 0 0
0.365563 0.568958 0.539167 0 0 0 255 0 0
0.342722 0.472751 0.554088 0 0 0 255 0 0
0.319882 0.376545 0.569008 0 0 0 255 0 0
0.297042 0.280338 0.583928 0 0 0 255 0 0
0.274202 0.184131 0.598849 0 0 0 255 0 0
0.251362 0.0879248 0.613769 0 0 0 255 0 0
0.228521 -0.00828177 0.628689 0 0 0 255 0 0
0.205681 -0.104488 0.64361 0 0 0 255 0 0
0.182841 -0.200695 0.65853 0 0 0 255 0 0
0.160001 -0.296902 0.673451 0 0 0 255 0 0
0.13716 -0.393108 0.688371 0 0 0 255 0 0
0.11432 -0.489315 0.703291 0 0 0 255 0 0
0.0914799 -0.585521 0.718212 0 0 0 255 0 0
0.0686397 -0.681728 0.733132 0 0 0 255 0 0
0.595922 1.12893 0.481169 0 0 0 255 0 0
0.573081 1.03273 0.496089 0 0 0 255 0 0
0.550241 0.936519 0.511009 0 0 0 255 0 0
0.527401 0.840312 0.52593 0 0 0 255 0 0
0.504561 0.744105 0.54085 0 0 0 255 0 0
0.481721 0.647899 0.55577 0 0 0 255 0 0
0.45888 0.551692 0.570691 0 0 0 255 0 0
0.43604 0.455486 0.585611 0 0 0 255 0 0
0.4132 0.359279 0.600532 0 0 0 255 0 0
0.39036 0.263072 0.615452 0 0 0 255 0 0
0.367519 0.166866 0.630372 0 0 0 255 0 0
0.344679 0.0706593 0.645293 0 0 0 255 0 0
0.321839 -0.0255473 0.660213 0 0 0 255 0 0
0.298999 -0.121754 0.675133 0 0 0 255 0 0
0.276158 -0.21796 0.690054 0 0 0 255 0 0
0.253318 -0.314167 0.704974 0 0 0 255 0 0
0.230478 -0.410374 0.719894 0 0 0 255 0 0
0.207638 -0.50658 0.734815 0 0 0 255 0 0
0.184797 -0.602787 0.749735 0 0 0 255 0 0
0.161957 -0.698993 0.764656 0 0 0 255 0 0
0.689239 1.11167 0.512692 0 0 0 255 0 0
0.666399 1.01546 0.527612 0 0 0 255 0 0
0.643559 0.919253 0.542533 0 0 0 255 0 0
0.620719 0.823047 0.557453 0 0 0 255 0 0
0.597878 0.72684 0.572374 0 0 0 255 0 0
0.575038 0.630633 0.587294 0 0 0 255 0 0
0.552198 0.534427 0.602214 0 0 0 255 0 0
0.529358 0.43822 0.617135 0 0 0 255 0 0
0.506517 0.342014 0.632055 0 0 0 255 0 0
0.483677 0.245807 0.646975 0 0 0 255 0 0
0.460837 0.1496 0.661896 0 0 0 255 0 0
0.437997 0.0533938 0.676816 0 0 0 255 0 0
0.415157 -0.0428127 0.691737 0 0 0 255 0 0
0.392316 -0.139019 0.706657 0 0 0 255 0 0
0.369476 -0.235226 0.721577 0 0 0 255 0 0
0.346636 -0.331432 0.736498 0 0 0 255 0 0
0.323796 -0.427639 0.751418 0 0 0 255 0 0
0.300955 -0.523846 0.766338 0 0 0 255 0 0
0.278115 -0.620052 0.781259 0 0 0 255 0 0
0.255275 -0.716259 0.796179 0 0 0 255 0 0
0.782557 1.0944 0.544216 0 0 0 255 0 0
0.759717 0.998194 0.559136 0 0 0 255 0 0
0.736876 0.901988 0.574056 0 0 0 255 0 0
0.714036 0.805781 0.588977 0 0 0 255 0 0
0.691196 0.709574 0.603897 0 0 0 255 0 0
0.668356 0.613368 0.618817 0 0 0 255 0 0
0.645516 0.517161 0.633738 0 0 0 255 0 0
0.622675 0.420955 0.648658 0 0 0 255 0 0
0.599835 0.324748 0.663579 0 0 0 255 0 0
0.576995 0.228542 0.678499 0 0 0 255 0 0
0.554155 0.132335 0.693419 0 0 0 255 0 0
0.531314 0.0361284 0.70834 0 0 0 255 0 0
0.508474 -0.0600782 0.72326 0 0 0 255 0 0
0.485634 -0.156285 0.73818 0 0 0 255 0 0
0.462794 -0.252491 0.753101 0 0 0 255 0 0
0.439953 -0.348698 0.768021 0 0 0 255 0 0
0.417113 -0.444905 0.782942 0 0 0 255 0 0
0.394273 -0.541111 0.797862 0 0 0 255 0 0
0.371433 -0.637318 0.812782 0 0 0 255 0 0
0.348592 -0.733524 0.827703 0 0 0 255 0 0
0.875875 1.07714 0.575739 0 0 0 255 0 0
0.853034 0.980929 0.590659 0 0 0 255 0 0
0.830194 0.884722 0.60558 0 0 0 255 0 0
0.807354 0.788516 0.6205 0 0 0 255 0 0
0.784514 0.692309 0.635421 0 0 0 255 0 0
0.761673 0.596102 0.650341 0 0 0 255 0 0
0.738833 0.499896 0.665261 0 0 0 255 0 0
0.715993 0.403689 0.680182 0 0 0 255 0 0
0.693153 0.307483 0.695102 0 0 0 255 0 0
0.670312 0.211276 0.710022 0 0 0 255 0 0
0.647472 0.115069 0.724943 0 0 0 255 0 0
0.624632 0.0188629 0.739863 0 0 0 255 0 0
0.601792 -0.0773437 0.754784 0 0 0 255 0 0
0.578951 -0.17355 0.769704 0 0 0 255 0 0
0.556111 -0.269757 0.784624 0 0 0 255 0 0
0.533271 -0.365963 0.799545 0 0 0 255 0 0
0.510431 -0.46217 0.814465 0 0 0 255 0 0
0.487591 -0.558377 0.829385 0 0 0 255 0 0
0.46475 -0.654583 0.844306 0 0 0 255 0 0
0.44191 -0.75079 0.859226 0 0 0 255 0 0
0.969192 1.05987 0.607263 0 0 0 255 0 0
0.946352 0.963663 0.622183 0 0 0 255 0 0
0.923512 0.867457 0.637103 0 0 0 255 0 0
0.900671 0.77125 0.652024 0 0 0 255 0 0
0.877831 0.675043 0.666944 0 0 0 255 0 0
0.854991 0.578837 0.681865 0 0 0 255 0 0
0.832151 0.48263 0.696785 0 0 0 255 0 0
0.80931 0.386424 0.711705 0 0 0 255 0 0
0.78647 0.290217 0.726626 0 0 0 255 0 0
0.76363 0.194011 0.741546 0 0 0 255 0 0
0.74079 0.097804 0.756466 0 0 0 255 0 0
0.71795 0.0015974 0.771387 0 0 0 255 0 0
0.695109 -0.0946092 0.786307 0 0 0 255 0 0
0.672269 -0.190816 0.801228 0 0 0 255 0 0
0.649429 -0.287022 0.816148 0 0 0 255 0 0
0.626589 -0.383229 0.831068 0 0 0 255 0 0
0.603748 -0.479436 0.845989 0 0 0 255 0 0
0.580908 -0.575642 0.860909 0 0 0 255 0 0
0.558068 -0.671849 0.875829 0 0 0 255 0 0
0.535228 -0.768055 0.89075 0 0 0 255 0 0
