ply
format ascii 1.0
element vertex 400
property float x
property float y
property float z
property float nx
property float ny
property float nz
property uchar red
property uchar green
property uchar blue
end_header
-1.23404 0.931363 0.730287 0 0 0 255 0 0
-1.2184 0.850732 0.673244 0 0 0 255 0 0
-1.20275 0.770102 0.616201 0 0 0 255 0 0
-1.1871 0.689472 0.559158 0 0 0 255 0 0
-1.17145 0.608841 0.502115 0 0 0 255 0 0
-1.15581 0.528211 0.445072 0 0 0 255 0 0
-1.14016 0.447581 0.388029 0 0 0 255 0 0
-1.12451 0.36695 0.330986 0 0 0 255 0 0
-1.10886 0.28632 0.273943 0 0 0 255 0 0
-1.09322 0.20569 0.2169 0 0 0 255 0 0
-1.07757 0.125059 0.159857 0 0 0 255 0 0
-1.06192 0.044429 0.102814 0 0 0 255 0 0
-1.04627 -0.0362014 0.0457709 0 0 0 255 0 0
-1.03063 -0.116832 -0.011272 0 0 0 255 0 0
-1.01498 -0.197462 -0.068315 0 0 0 255 0 0
-0.999331 -0.278092 -0.125358 0 0 0 255 0 0
-0.983683 -0.358723 -0.182401 0 0 0 255 0 0
-0.968035 -0.439353 -0.239444 0 0 0 255 0 0
-0.952388 -0.519983 -0.296487 0 0 0 255 0 0
-0.93674 -0.600614 -0.35353 0 0 0 255 0 0
-1.13611 0.936539 0.749835 0 0 0 255 0 0
-1.12046 0.855909 0.692792 0 0 0 255 0 0
-1.10482 0.775278 0.635749 0 0 0 255 0 0
-1.08917 0.694648 0.578706 0 0 0 255 0 0
-1.07352 0.614018 0.521663 0 0 0 255 0 0
-1.05787 0.533387 0.46462 0 0 0 255 0 0
-1.04222 0.452757 0.407577 0 0 0 255 0 0
-1.02658 0.372127 0.350534 0 0 0 255 0 0
-1.01093 0.291496 0.293491 0 0 0 255 0 0
-0.995282 0.210866 0.236448 0 0 0 255 0 0
-0.979634 0.130236 0.179405 0 0 0 255 0 0
-0.963987 0.0496052 0.122362 0 0 0 255 0 0
-0.948339 -0.0310251 0.0653188 0 0 0 255 0 0
-0.932692 -0.111655 0.00827581 0 0 0 255 0 0
-0.917044 -0.192286 -0.0487671 0 0 0 255 0 0
-0.901397 -0.272916 -0.10581 0 0 0 255 0 0
-0.885749 -0.353547 -0.162853 0 0 0 255 0 0
-0.870101 -0.434177 -0.219896 0 0 0 255 0 0
-0.854454 -0.514807 -0.276939 0 0 0 255 0 0
-0.838806 -0.595438 -0.333982 0 0 0 255 0 0
-1.03818 0.941715 0.769383 0 0 0 255 0 0
-1.02253 0.861085 0.71234 0 0 0 255 0 0
-1.00688 0.780455 0.655297 0 0 0 255 0 0
-0.991233 0.699824 0.598254 0 0 0 255 0 0
-0.975586 0.619194 0.541211 0 0 0 255 0 0
-0.959938 0.538563 0.484168 0 0 0 255 0 0
-0.944291 0.457933 0.427125 0 0 0 255 0 0
-0.928643 0.377303 0.370082 0 0 0 255 0 0
-0.912995 0.296672 0.313039 0 0 0 255 0 0
-0.897348 0.216042 0.255996 0 0 0 255 0 0
-0.8817 0.135412 0.198953 0 0 0 255 0 0
-0.866053 0.0547815 0.14191 0 0 0 255 0 0
-0.850405 -0.0258489 0.0848667 0 0 0 255 0 0
-0.834758 -0.106479 0.0278237 0 0 0 255 0 0
-0.81911 -0.18711 -0.0292193 0 0 0 255 0 0
-0.803462 -0.26774 -0.0862623 0 0 0 255 0 0
-0.787815 -0.34837 -0.143305 0 0 0 255 0 0
-0.772167 -0.429001 -0.200348 0 0 0 255 0 0
-0.75652 -0.509631 -0.257391 0 0 0 255 0 0
-0.740872 -0.590261 -0.314434 0 0 0 255 0 0
-0.940242 0.946891 0.78893 0 0 0 255 0 0
-0.924594 0.866261 0.731887 0 0 0 255 0 0
-0.908947 0.785631 0.674844 0 0 0 255 0 0
-0.893299 0.705 0.617801 0 0 0 255 0 0
-0.877652 0.62437 0.560758 0 0 0 255 0 0
-0.862004 0.54374 0.503715 0 0 0 255 0 0
-0.846357 0.463109 0.446672 0 0 0 255 0 0
-0.830709 0.382479 0.389629 0 0 0 255 0 0
-0.815061 0.301849 0.332586 0 0 0 255 0 0
-0.799414 0.221218 0.275544 0 0 0 255 0 0
-0.783766 0.140588 0.218501 0 0 0 255 0 0
-0.768119 0.0599577 0.161458 0 0 0 255 0 0
-0.752471 -0.0206726 0.104415 0 0 0 255 0 0
-0.736823 -0.101303 0.0473716 0 0 0 255 0 0
-0.721176 -0.181933 -0.00967142 0 0 0 255 0 0
-0.705528 -0.262564 -0.0667144 0 0 0 255 0 0
-0.689881 -0.343194 -0.123757 0 0 0 255 0 0
-0.674233 -0.423824 -0.1808 0 0 0 255 0 0
-0.658586 -0.504455 -0.237843 0 0 0 255 0 0
-0.642938 -0.585085 -0.294886 0 0 0 255 0 0
-0.842308 0.952068 0.808478 0 0 0 255 0 0
-0.82666 0.871437 0.751435 0 0 0 255 0 0
-0.811013 0.790807 0.694392 0 0 0 255 0 0
-0.795365 0.710177 0.637349 0 0 0 255 0 0
-0.779718 0.629546 0.580306 0 0 0 255 0 0
-0.76407 0.548916 0.523263 0 0 0 255 0 0
-0.748422 0.468286 0.46622 0 0 0 255 0 0
-0.732775 0.387655 0.409177 0 0 0 255 0 0
-0.717127 0.307025 0.352134 0 0 0 255 0 0
-0.70148 0.226395 0.295091 0 0 0 255 0 0
-0.685832 0.145764 0.238048 0 0 0 255 0 0
-0.670184 0.065134 0.181005 0 0 0 255 0 0
-0.654537 -0.0154964 0.123962 0 0 0 255 0 0
-0.638889 -0.0961267 0.0669194 0 0 0 255 0 0
-0.623242 -0.176757 0.00987643 0 0 0 255 0 0
-0.607594 -0.257387 -0.0471665 0 0 0 255 0 0
-0.591947 -0.338018 -0.10421 0 0 0 255 0 0
-0.576299 -0.418648 -0.161252 0 0 0 255 0 0
-0.560651 -0.499278 -0.218296 0 0 0 255 0 0
-0.545004 -0.579909 -0.275339 0 0 0 255 0 0
-0.744374 0.957244 0.828026 0 0 0 255 0 0
-0.728726 0.876614 0.770983 0 0 0 255 0 0
-0.713079 0.795983 0.71394 0 0 0 255 0 0
-0.697431 0.715353 0.656897 0 0 0 255 0 0
-0.681783 0.634723 0.599854 0 0 0 255 0 0
-0.666136 0.554092 0.542811 0 0 0 255 0 0
-0.650488 0.473462 0.485768 0 0 0 255 0 0
-0.634841 0.392832 0.428725 0 0 0 255 0 0
-0.619193 0.312201 0.371682 0 0 0 255 0 0
-0.603546 0.231571 0.314639 0 0 0 255 0 0
-0.587898 0.150941 0.257596 0 0 0 255 0 0
-0.57225 0.0703102 0.200553 0 0 0 255 0 0
-0.556603 -0.0103201 0.14351 0 0 0 255 0 0
-0.540955 -0.0909504 0.0864673 0 0 0 255 0 0
-0.525308 -0.171581 0.0294243 0 0 0 255 0 0
-0.50966 -0.252211 -0.0276187 0 0 0 255 0 0
-0.494012 -0.332841 -0.0846617 0 0 0 255 0 0
-0.478365 -0.413472 -0.141705 0 0 0 255 0 0
-0.462717 -0.494102 -0.198748 0 0 0 255 0 0
-0.44707 -0.574733 -0.255791 0 0 0 255 0 0
-0.64644 0.96242 0.847574 0 0 0 255 0 0
-0.630792 0.88179 0.790531 0 0 0 255 0 0
-0.615144 0.80116 0.733488 0 0 0 255 0 0
-0.599497 0.720529 0.676445 0 0 0 255 0 0
-0.583849 0.639899 0.619402 0 0 0 255 0 0
-0.568202 0.559269 0.562359 0 0 0 255 0 0
-0.552554 0.478638 0.505316 0 0 0 255 0 0
-0.536907 0.398008 0.448273 0 0 0 255 0 0
-0.521259 0.317378 0.39123 0 0 0 255 0 0
-0.505611 0.236747 0.334187 0 0 0 255 0 0
-0.489964 0.156117 0.277144 0 0 0 255 0 0
-0.474316 0.0754865 0.220101 0 0 0 255 0 0
-0.458669 -0.00514385 0.163058 0 0 0 255 0 0
-0.443021 -0.0857742 0.106015 0 0 0 255 0 0
-0.427374 -0.166405 0.0489722 0 0 0 255 0 0
-0.411726 -0.247035 -0.0080708 0 0 0 255 0 0
-0.396078 -0.327665 -0.0651138 0 0 0 255 0 0
-0.380431 -0.408296 -0.122157 0 0 0 255 0 0
-0.364783 -0.488926 -0.1792 0 0 0 255 0 0
-0.349136 -0.569556 -0.236243 0 0 0 255 0 0
-0.548506 0.967597 0.867122 0 0 0 255 0 0
-0.532858 0.886966 0.810079 0 0 0 255 0 0
-0.51721 0.806336 0.753036 0 0 0 255 0 0
-0.501563 0.725705 0.695993 0 0 0 255 0 0
-0.485915 0.645075 0.63895 0 0 0 255 0 0
-0.470268 0.564445 0.581907 0 0 0 255 0 0
-0.45462 0.483814 0.524864 0 0 0 255 0 0
-0.438973 0.403184 0.467821 0 0 0 255 0 0
-0.423325 0.322554 0.410778 0 0 0 255 0 0
-0.407677 0.241923 0.353735 0 0 0 255 0 0
-0.39203 0.161293 0.296692 0 0 0 255 0 0
-0.376382 0.0806627 0.239649 0 0 0 255 0 0
-0.360735 3.241e-05 0.182606 0 0 0 255 0 0
-0.345087 -0.0805979 0.125563 0 0 0 255 0 0
-0.329439 -0.161228 0.06852 0 0 0 255 0 0
-0.313792 -0.241859 0.0114771 0 0 0 255 0 0
-0.298144 -0.322489 -0.045566 0 0 0 255 0 0
-0.282497 -0.403119 -0.102609 0 0 0 255 0 0
-0.266849 -0.48375 -0.159652 0 0 0 255 0 0
-0.251202 -0.56438 -0.216695 0 0 0 255 0 0
-0.450571 0.972773 0.88667 0 0 0 255 0 0
-0.434924 0.892142 0.829627 0 0 0 255 0 0
-0.419276 0.811512 0.772584 0 0 0 255 0 0
-0.403629 0.730882 0.715541 0 0 0 255 0 0
-0.387981 0.650251 0.658498 0 0 0 255 0 0
-0.372334 0.569621 0.601455 0 0 0 255 0 0
-0.356686 0.488991 0.544412 0 0 0 255 0 0
-0.341038 0.40836 0.487369 0 0 0 255 0 0
-0.325391 0.32773 0.430326 0 0 0 255 0 0
-0.309743 0.2471 0.373283 0 0 0 255 0 0
-0.294096 0.166469 0.31624 0 0 0 255 0 0
-0.278448 0.085839 0.259197 0 0 0 255 0 0
-0.2628 0.00520866 0.202154 0 0 0 255 0 0
-0.247153 -0.0754217 0.145111 0 0 0 255 0 0
-0.231505 -0.156052 0.0880679 0 0 0 255 0 0
-0.215858 -0.236682 0.0310249 0 0 0 255 0 0
-0.20021 -0.317313 -0.0260181 0 0 0 255 0 0
-0.184563 -0.397943 -0.0830611 0 0 0 255 0 0
-0.168915 -0.478573 -0.140104 0 0 0 255 0 0
-0.153267 -0.559204 -0.197147 0 0 0 255 0 0
-0.352637 0.977949 0.906218 0 0 0 255 0 0
-0.33699 0.897319 0.849175 0 0 0 255 0 0
-0.321342 0.816688 0.792132 0 0 0 255 0 0
-0.305695 0.736058 0.735089 0 0 0 255 0 0
-0.290047 0.655428 0.678046 0 0 0 255 0 0
-0.274399 0.574797 0.621003 0 0 0 255 0 0
-0.258752 0.494167 0.56396 0 0 0 255 0 0
-0.243104 0.413537 0.506917 0 0 0 255 0 0
-0.227457 0.332906 0.449874 0 0 0 255 0 0
-0.211809 0.252276 0.392831 0 0 0 255 0 0
-0.196162 0.171646 0.335788 0 0 0 255 0 0
-0.180514 0.0910152 0.278745 0 0 0 255 0 0
-0.164866 0.0103849 0.221702 0 0 0 255 0 0
-0.149219 -0.0702454 0.164659 0 0 0 255 0 0
-0.133571 -0.150876 0.107616 0 0 0 255 0 0
-0.117924 -0.231506 0.0505728 0 0 0 255 0 0
-0.102276 -0.312136 -0.00647023 0 0 0 255 0 0
-0.0866285 -0.392767 -0.0635132 0 0 0 255 0 0
-0.0709809 -0.473397 -0.120556 0 0 0 255 0 0
-0.0553333 -0.554027 -0.177599 0 0 0 255 0 0
-0.254703 0.983125 0.925765 0 0 0 255 0 0
-0.239056 0.902495 0.868722 0 0 0 255 0 0
-0.223408 0.821865 0.811679 0 0 0 255 0 0
-0.207761 0.741234 0.754636 0 0 0 255 0 0
-0.192113 0.660604 0.697593 0 0 0 255 0 0
-0.176465 0.579974 0.64055 0 0 0 255 0 0
-0.160818 0.499343 0.583508 0 0 0 255 0 0
-0.14517 0.418713 0.526465 0 0 0 255 0 0
-0.129523 0.338083 0.469422 0 0 0 255 0 0
-0.113875 0.257452 0.412379 0 0 0 255 0 0
-0.0982274 0.176822 0.355336 0 0 0 255 0 0
-0.0825799 0.0961915 0.298293 0 0 0 255 0 0
-0.0669323 0.0155612 0.24125 0 0 0 255 0 0
-0.0512847 -0.0650692 0.184207 0 0 0 255 0 0
-0.0356371 -0.1457 0.127164 0 0 0 255 0 0
-0.0199896 -0.22633 0.0701206 0 0 0 255 0 0
-0.00434197 -0.30696 0.0130776 0 0 0 255 0 0
0.0113056 -0.387591 -0.0439654 0 0 0 255 0 0
0.0269532 -0.468221 -0.101008 0 0 0 255 0 0
0.0426008 -0.548851 -0.158051 0 0 0 255 0 0
-0.156769 0.988302 0.945313 0 0 0 255 0 0
-0.141122 0.907671 0.88827 0 0 0 255 0 0
-0.125474 0.827041 0.831227 0 0 0 255 0 0
-0.109826 0.74641 0.774184 0 0 0 255 0 0
-0.0941788 0.66578 0.717141 0 0 0 255 0 0
-0.0785312 0.58515 0.660098 0 0 0 255 0 0
-0.0628837 0.504519 0.603055 0 0 0 255 0 0
-0.0472361 0.423889 0.546012 0 0 0 255 0 0
-0.0315885 0.343259 0.488969 0 0 0 255 0 0
-0.0159409 0.262628 0.431926 0 0 0 255 0 0
-0.000293337 0.181998 0.374883 0 0 0 255 0 0
0.0153542 0.101368 0.31784 0 0 0 255 0 0
0.0310018 0.0207374 0.260797 0 0 0 255 0 0
0.0466494 -0.0598929 0.203754 0 0 0 255 0 0
0.062297 -0.140523 0.146711 0 0 0 255 0 0
0.0779445 -0.221154 0.0896685 0 0 0 255 0 0
0.0935921 -0.301784 0.0326255 0 0 0 255 0 0
0.10924 -0.382414 -0.0244175 0 0 0 255 0 0
0.124887 -0.463045 -0.0814605 0 0 0 255 0 0
0.140535 -0.543675 -0.138503 0 0 0 255 0 0
-0.058835 0.993478 0.964861 0 0 0 255 0 0
-0.0431875 0.912847 0.907818 0 0 0 255 0 0
-0.0275399 0.832217 0.850775 0 0 0 255 0 0
-0.0118923 0.751587 0.793732 0 0 0 255 0 0
0.00375529 0.670956 0.736689 0 0 0 255 0 0
0.0194029 0.590326 0.679646 0 0 0 255 0 0
0.0350505 0.509696 0.622603 0 0 0 255 0 0
0.050698 0.429065 0.56556 0 0 0 255 0 0
0.0663456 0.348435 0.508517 0 0 0 255 0 0
0.0819932 0.267805 0.451474 0 0 0 255 0 0
0.0976408 0.187174 0.394431 0 0 0 255 0 0
0.113288 0.106544 0.337388 0 0 0 255 0 0
0.128936 0.0259137 0.280345 0 0 0 255 0 0
0.144584 -0.0547167 0.223302 0 0 0 255 0 0
0.160231 -0.135347 0.166259 0 0 0 255 0 0
0.175879 -0.215977 0.109216 0 0 0 255 0 0
0.191526 -0.296608 0.0521733 0 0 0 255 0 0
0.207174 -0.377238 -0.00486964 0 0 0 255 0 0
0.222821 -0.457868 -0.0619127 0 0 0 255 0 0
0.238469 -0.538499 -0.118956 0 0 0 255 0 0
0.0390991 0.998654 0.984409 0 0 0 255 0 0
0.0547466 0.918024 0.927366 0 0 0 255 0 0
0.0703942 0.837393 0.870323 0 0 0 255 0 0
0.0860418 0.756763 0.81328 0 0 0 255 0 0
0.101689 0.676133 0.756237 0 0 0 255 0 0
0.117337 0.595502 0.699194 0 0 0 255 0 0
0.132985 0.514872 0.642151 0 0 0 255 0 0
0.148632 0.434242 0.585108 0 0 0 255 0 0
0.16428 0.353611 0.528065 0 0 0 255 0 0
0.179927 0.272981 0.471022 0 0 0 255 0 0
0.195575 0.192351 0.413979 0 0 0 255 0 0
0.211222 0.11172 0.356936 0 0 0 255 0 0
0.22687 0.0310899 0.299893 0 0 0 255 0 0
0.242518 -0.0495404 0.24285 0 0 0 255 0 0
0.258165 -0.130171 0.185807 0 0 0 255 0 0
0.273813 -0.210801 0.128764 0 0 0 255 0 0
0.28946 -0.291431 0.0717212 0 0 0 255 0 0
0.305108 -0.372062 0.0146782 0 0 0 255 0 0
0.320756 -0.452692 -0.0423648 0 0 0 255 0 0
0.336403 -0.533322 -0.0994078 0 0 0 255 0 0
0.137033 1.00383 1.00396 0 0 0 255 0 0
0.152681 0.9232 0.946914 0 0 0 255 0 0
0.168328 0.84257 0.889871 0 0 0 255 0 0
0.183976 0.761939 0.832828 0 0 0 255 0 0
0.199623 0.681309 0.775785 0 0 0 255 0 0
0.215271 0.600679 0.718742 0 0 0 255 0 0
0.230919 0.520048 0.661699 0 0 0 255 0 0
0.246566 0.439418 0.604656 0 0 0 255 0 0
0.262214 0.358788 0.547613 0 0 0 255 0 0
0.277861 0.278157 0.49057 0 0 0 255 0 0
0.293509 0.197527 0.433527 0 0 0 255 0 0
0.309157 0.116897 0.376484 0 0 0 255 0 0
0.324804 0.0362662 0.319441 0 0 0 255 0 0
0.340452 -0.0443641 0.262398 0 0 0 255 0 0
0.356099 -0.124995 0.205355 0 0 0 255 0 0
0.371747 -0.205625 0.148312 0 0 0 255 0 0
0.387394 -0.286255 0.0912691 0 0 0 255 0 0
0.403042 -0.366886 0.0342261 0 0 0 255 0 0
0.41869 -0.447516 -0.0228169 0 0 0 255 0 0
0.434337 -0.528146 -0.0798599 0 0 0 255 0 0
0.234967 1.00901 1.0235 0 0 0 255 0 0
0.250615 0.928376 0.966462 0 0 0 255 0 0
0.266262 0.847746 0.909419 0 0 0 255 0 0
0.28191 0.767115 0.852376 0 0 0 255 0 0
0.297558 0.686485 0.795333 0 0 0 255 0 0
0.313205 0.605855 0.73829 0 0 0 255 0 0
0.328853 0.525225 0.681247 0 0 0 255 0 0
0.3445 0.444594 0.624204 0 0 0 255 0 0
0.360148 0.363964 0.567161 0 0 0 255 0 0
0.375795 0.283333 0.510118 0 0 0 255 0 0
0.391443 0.202703 0.453075 0 0 0 255 0 0
0.407091 0.122073 0.396032 0 0 0 255 0 0
0.422738 0.0414424 0.338989 0 0 0 255 0 0
0.438386 -0.0391879 0.281946 0 0 0 255 0 0
0.454033 -0.119818 0.224903 0 0 0 255 0 0
0.469681 -0.200449 0.16786 0 0 0 255 0 0
0.485329 -0.281079 0.110817 0 0 0 255 0 0
0.500976 -0.361709 0.053774 0 0 0 255 0 0
0.516624 -0.44234 -0.00326905 0 0 0 255 0 0
0.532271 -0.52297 -0.060312 0 0 0 255 0 0
0.332901 1.01418 1.04305 0 0 0 255 0 0
0.348549 0.933552 0.98601 0 0 0 255 0 0
0.364197 0.852922 0.928967 0 0 0 255 0 0
0.379844 0.772292 0.871924 0 0 0 255 0 0
0.395492 0.691661 0.814881 0 0 0 255 0 0
0.411139 0.611031 0.757838 0 0 0 255 0 0
0.426787 0.530401 0.700795 0 0 0 255 0 0
0.442434 0.44977 0.643752 0 0 0 255 0 0
0.458082 0.36914 0.586709 0 0 0 255 0 0
0.47373 0.28851 0.529666 0 0 0 255 0 0
0.489377 0.207879 0.472623 0 0 0 255 0 0
0.505025 0.127249 0.41558 0 0 0 255 0 0
0.520672 0.0466187 0.358537 0 0 0 255 0 0
0.53632 -0.0340116 0.301494 0 0 0 255 0 0
0.551968 -0.114642 0.244451 0 0 0 255 0 0
0.567615 -0.195272 0.187408 0 0 0 255 0 0
0.583263 -0.275903 0.130365 0 0 0 255 0 0
0.59891 -0.356533 0.0733218 0 0 0 255 0 0
0.614558 -0.437163 0.0162788 0 0 0 255 0 0
0.630205 -0.517794 -0.0407642 0 0 0 255 0 0
0.430836 1.01936 1.0626 0 0 0 255 0 0
0.446483 0.938729 1.00556 0 0 0 255 0 0
0.462131 0.858098 0.948515 0 0 0 255 0 0
0.477778 0.777468 0.891472 0 0 0 255 0 0
0.493426 0.696838 0.834429 0 0 0 255 0 0
0.509073 0.616207 0.777386 0 0 0 255 0 0
0.524721 0.535577 0.720343 0 0 0 255 0 0
0.540369 0.454947 0.6633 0 0 0 255 0 0
0.556016 0.374316 0.606257 0 0 0 255 0 0
0.571664 0.293686 0.549214 0 0 0 255 0 0
0.587311 0.213056 0.492171 0 0 0 255 0 0
0.602959 0.132425 0.435128 0 0 0 255 0 0
0.618606 0.051795 0.378085 0 0 0 255 0 0
0.634254 -0.0288354 0.321042 0 0 0 255 0 0
0.649902 -0.109466 0.263999 0 0 0 255 0 0
0.665549 -0.190096 0.206956 0 0 0 255 0 0
0.681197 -0.270726 0.149913 0 0 0 255 0 0
0.696844 -0.351357 0.0928697 0 0 0 255 0 0
0.712492 -0.431987 0.0358267 0 0 0 255 0 0
0.72814 -0.512617 -0.0212163 0 0 0 255 0 0
0.52877 1.02454 1.08215 0 0 0 255 0 0
0.544417 0.943905 1.02511 0 0 0 255 0 0
0.560065 0.863275 0.968062 0 0 0 255 0 0
0.575712 0.782644 0.911019 0 0 0 255 0 0
0.59136 0.702014 0.853976 0 0 0 255 0 0
0.607008 0.621384 0.796933 0 0 0 255 0 0
0.622655 0.540753 0.73989 0 0 0 255 0 0
0.638303 0.460123 0.682847 0 0 0 255 0 0
0.65395 0.379493 0.625804 0 0 0 255 0 0
0.669598 0.298862 0.568761 0 0 0 255 0 0
0.685245 0.218232 0.511719 0 0 0 255 0 0
0.700893 0.137602 0.454675 0 0 0 255 0 0
0.716541 0.0569712 0.397633 0 0 0 255 0 0
0.732188 -0.0236591 0.34059 0 0 0 255 0 0
0.747836 -0.104289 0.283547 0 0 0 255 0 0
0.763483 -0.18492 0.226504 0 0 0 255 0 0
0.779131 -0.26555 0.169461 0 0 0 255 0 0
0.794778 -0.346181 0.112418 0 0 0 255 0 0
0.810426 -0.426811 0.0553746 0 0 0 255 0 0
0.826074 -0.507441 -0.00166845 0 0 0 255 0 0
0.626704 1.02971 1.1017 0 0 0 255 0 0
0.642351 0.949081 1.04465 0 0 0 255 0 0
0.657999 0.868451 0.98761 0 0 0 255 0 0
0.673646 0.787821 0.930567 0 0 0 255 0 0
0.689294 0.70719 0.873524 0 0 0 255 0 0
0.704942 0.62656 0.816481 0 0 0 255 0 0
0.720589 0.545929 0.759438 0 0 0 255 0 0
0.736237 0.465299 0.702395 0 0 0 255 0 0
0.751884 0.384669 0.645352 0 0 0 255 0 0
0.767532 0.304038 0.588309 0 0 0 255 0 0
0.78318 0.223408 0.531266 0 0 0 255 0 0
0.798827 0.142778 0.474223 0 0 0 255 0 0
0.814475 0.0621475 0.41718 0 0 0 255 0 0
0.830122 -0.0184829 0.360137 0 0 0 255 0 0
0.84577 -0.0991132 0.303094 0 0 0 255 0 0
0.861417 -0.179744 0.246051 0 0 0 255 0 0
0.877065 -0.260374 0.189008 0 0 0 255 0 0
0.892713 -0.341004 0.131965 0 0 0 255 0 0
0.90836 -0.421635 0.0749224 0 0 0 255 0 0
0.924008 -0.502265 0.0178794 0 0 0 255 0 0
