ply
format ascii 1.0
element vertex 400
property float x
property float y
property float z
property float nx
property float ny
property float nz
property uchar red
property uchar green
property uchar blue
end_header
-0.855873 1.41368 0.374618 0 0 0 255 0 0
-0.870631 1.31679 0.35474 0 0 0 255 0 0
-0.885389 1.21991 0.334862 0 0 0 255 0 0
-0.900147 1.12302 0.314984 0 0 0 255 0 0
-0.914905 1.02613 0.295107 0 0 0 255 0 0
-0.929663 0.929247 0.275229 0 0 0 255 0 0
-0.944421 0.83236 0.255351 0 0 0 255 0 0
-0.959179 0.735473 0.235473 0 0 0 255 0 0
-0.973936 0.638586 0.215595 0 0 0 255 0 0
-0.988694 0.541699 0.195718 0 0 0 255 0 0
-1.00345 0.444812 0.17584 0 0 0 255 0 0
-1.01821 0.347925 0.155962 0 0 0 255 0 0
-1.03297 0.251038 0.136084 0 0 0 255 0 0
-1.04773 0.154151 0.116207 0 0 0 255 0 0
-1.06248 0.0572646 0.0963288 0 0 0 255 0 0
-1.07724 -0.0396224 0.076451 0 0 0 255 0 0
-1.092 -0.136509 0.0565732 0 0 0 255 0 0
-1.10676 -0.233396 0.0366955 0 0 0 255 0 0
-1.12152 -0.330283 0.0168177 0 0 0 255 0 0
-1.13627 -0.42717 -0.0030601 0 0 0 255 0 0
-0.760941 1.39417 0.399258 0 0 0 255 0 0
-0.775699 1.29728 0.37938 0 0 0 255 0 0
-0.790457 1.20039 0.359502 0 0 0 255 0 0
-0.805215 1.10351 0.339624 0 0 0 255 0 0
-0.819973 1.00662 0.319746 0 0 0 255 0 0
-0.834731 0.909732 0.299869 0 0 0 255 0 0
-0.849489 0.812845 0.279991 0 0 0 255 0 0
-0.864247 0.715958 0.260113 0 0 0 255 0 0
-0.879005 0.619071 0.240235 0 0 0 255 0 0
-0.893763 0.522184 0.220358 0 0 0 255 0 0
-0.908521 0.425297 0.20048 0 0 0 255 0 0
-0.923278 0.32841 0.180602 0 0 0 255 0 0
-0.938036 0.231523 0.160724 0 0 0 255 0 0
-0.952794 0.134636 0.140846 0 0 0 255 0 0
-0.967552 0.0377492 0.120969 0 0 0 255 0 0
-0.98231 -0.0591377 0.101091 0 0 0 255 0 0
-0.997068 -0.156025 0.0812131 0 0 0 255 0 0
-1.01183 -0.252912 0.0613353 0 0 0 255 0 0
-1.02658 -0.349799 0.0414575 0 0 0 255 0 0
-1.04134 -0.446686 0.0215797 0 0 0 255 0 0
-0.66601 1.37465 0.423897 0 0 0 255 0 0
-0.680767 1.27776 0.40402 0 0 0 255 0 0
-0.695525 1.18088 0.384142 0 0 0 255 0 0
-0.710283 1.08399 0.364264 0 0 0 255 0 0
-0.725041 0.987103 0.344386 0 0 0 255 0 0
-0.739799 0.890216 0.324508 0 0 0 255 0 0
-0.754557 0.793329 0.304631 0 0 0 255 0 0
-0.769315 0.696442 0.284753 0 0 0 255 0 0
-0.784073 0.599555 0.264875 0 0 0 255 0 0
-0.798831 0.502669 0.244997 0 0 0 255 0 0
-0.813589 0.405782 0.22512 0 0 0 255 0 0
-0.828347 0.308895 0.205242 0 0 0 255 0 0
-0.843105 0.212008 0.185364 0 0 0 255 0 0
-0.857863 0.115121 0.165486 0 0 0 255 0 0
-0.87262 0.0182339 0.145608 0 0 0 255 0 0
-0.887378 -0.078653 0.125731 0 0 0 255 0 0
-0.902136 -0.17554 0.105853 0 0 0 255 0 0
-0.916894 -0.272427 0.0859751 0 0 0 255 0 0
-0.931652 -0.369314 0.0660974 0 0 0 255 0 0
-0.94641 -0.466201 0.0462196 0 0 0 255 0 0
-0.571078 1.35514 0.448537 0 0 0 255 0 0
-0.585836 1.25825 0.428659 0 0 0 255 0 0
-0.600594 1.16136 0.408782 0 0 0 255 0 0
-0.615352 1.06447 0.388904 0 0 0 255 0 0
-0.630109 0.967588 0.369026 0 0 0 255 0 0
-0.644867 0.870701 0.349148 0 0 0 255 0 0
-0.659625 0.773814 0.329271 0 0 0 255 0 0
-0.674383 0.676927 0.309393 0 0 0 255 0 0
-0.689141 0.58004 0.289515 0 0 0 255 0 0
-0.703899 0.483153 0.269637 0 0 0 255 0 0
-0.718657 0.386266 0.249759 0 0 0 255 0 0
-0.733415 0.289379 0.229882 0 0 0 255 0 0
-0.748173 0.192492 0.210004 0 0 0 255 0 0
-0.762931 0.0956055 0.190126 0 0 0 255 0 0
-0.777689 -0.00128144 0.170248 0 0 0 255 0 0
-0.792447 -0.0981684 0.150371 0 0 0 255 0 0
-0.807205 -0.195055 0.130493 0 0 0 255 0 0
-0.821962 -0.291942 0.110615 0 0 0 255 0 0
-0.83672 -0.388829 0.0907372 0 0 0 255 0 0
-0.851478 -0.485716 0.0708594 0 0 0 255 0 0
-0.476146 1.33562 0.473177 0 0 0 255 0 0
-0.490904 1.23873 0.453299 0 0 0 255 0 0
-0.505662 1.14185 0.433421 0 0 0 255 0 0
-0.52042 1.04496 0.413544 0 0 0 255 0 0
-0.535178 0.948072 0.393666 0 0 0 255 0 0
-0.549936 0.851186 0.373788 0 0 0 255 0 0
-0.564694 0.754299 0.35391 0 0 0 255 0 0
-0.579452 0.657412 0.334033 0 0 0 255 0 0
-0.594209 0.560525 0.314155 0 0 0 255 0 0
-0.608967 0.463638 0.294277 0 0 0 255 0 0
-0.623725 0.366751 0.274399 0 0 0 255 0 0
-0.638483 0.269864 0.254521 0 0 0 255 0 0
-0.653241 0.172977 0.234644 0 0 0 255 0 0
-0.667999 0.0760902 0.214766 0 0 0 255 0 0
-0.682757 -0.0207967 0.194888 0 0 0 255 0 0
-0.697515 -0.117684 0.17501 0 0 0 255 0 0
-0.712273 -0.214571 0.155133 0 0 0 255 0 0
-0.727031 -0.311458 0.135255 0 0 0 255 0 0
-0.741789 -0.408345 0.115377 0 0 0 255 0 0
-0.756547 -0.505232 0.0954992 0 0 0 255 0 0
-0.381214 1.31611 0.497817 0 0 0 255 0 0
-0.395972 1.21922 0.477939 0 0 0 255 0 0
-0.41073 1.12233 0.458061 0 0 0 255 0 0
-0.425488 1.02544 0.438184 0 0 0 255 0 0
-0.440246 0.928557 0.418306 0 0 0 255 0 0
-0.455004 0.83167 0.398428 0 0 0 255 0 0
-0.469762 0.734783 0.37855 0 0 0 255 0 0
-0.48452 0.637896 0.358672 0 0 0 255 0 0
-0.499278 0.54101 0.338795 0 0 0 255 0 0
-0.514036 0.444123 0.318917 0 0 0 255 0 0
-0.528794 0.347236 0.299039 0 0 0 255 0 0
-0.543551 0.250349 0.279161 0 0 0 255 0 0
-0.558309 0.153462 0.259284 0 0 0 255 0 0
-0.573067 0.0565749 0.239406 0 0 0 255 0 0
-0.587825 -0.0403121 0.219528 0 0 0 255 0 0
-0.602583 -0.137199 0.19965 0 0 0 255 0 0
-0.617341 -0.234086 0.179772 0 0 0 255 0 0
-0.632099 -0.330973 0.159895 0 0 0 255 0 0
-0.646857 -0.42786 0.140017 0 0 0 255 0 0
-0.661615 -0.524747 0.120139 0 0 0 255 0 0
-0.286283 1.29659 0.522457 0 0 0 255 0 0
-0.301041 1.1997 0.502579 0 0 0 255 0 0
-0.315798 1.10282 0.482701 0 0 0 255 0 0
-0.330556 1.00593 0.462823 0 0 0 255 0 0
-0.345314 0.909042 0.442946 0 0 0 255 0 0
-0.360072 0.812155 0.423068 0 0 0 255 0 0
-0.37483 0.715268 0.40319 0 0 0 255 0 0
-0.389588 0.618381 0.383312 0 0 0 255 0 0
-0.404346 0.521494 0.363434 0 0 0 255 0 0
-0.419104 0.424607 0.343557 0 0 0 255 0 0
-0.433862 0.32772 0.323679 0 0 0 255 0 0
-0.44862 0.230833 0.303801 0 0 0 255 0 0
-0.463378 0.133946 0.283923 0 0 0 255 0 0
-0.478136 0.0370595 0.264046 0 0 0 255 0 0
-0.492893 -0.0598274 0.244168 0 0 0 255 0 0
-0.507651 -0.156714 0.22429 0 0 0 255 0 0
-0.522409 -0.253601 0.204412 0 0 0 255 0 0
-0.537167 -0.350488 0.184534 0 0 0 255 0 0
-0.551925 -0.447375 0.164657 0 0 0 255 0 0
-0.566683 -0.544262 0.144779 0 0 0 255 0 0
-0.191351 1.27707 0.547097 0 0 0 255 0 0
-0.206109 1.18019 0.527219 0 0 0 255 0 0
-0.220867 1.0833 0.507341 0 0 0 255 0 0
-0.235625 0.986414 0.487463 0 0 0 255 0 0
-0.250383 0.889527 0.467585 0 0 0 255 0 0
-0.265141 0.79264 0.447708 0 0 0 255 0 0
-0.279898 0.695753 0.42783 0 0 0 255 0 0
-0.294656 0.598866 0.407952 0 0 0 255 0 0
-0.309414 0.501979 0.388074 0 0 0 255 0 0
-0.324172 0.405092 0.368197 0 0 0 255 0 0
-0.33893 0.308205 0.348319 0 0 0 255 0 0
-0.353688 0.211318 0.328441 0 0 0 255 0 0
-0.368446 0.114431 0.308563 0 0 0 255 0 0
-0.383204 0.0175442 0.288685 0 0 0 255 0 0
-0.397962 -0.0793427 0.268808 0 0 0 255 0 0
-0.41272 -0.17623 0.24893 0 0 0 255 0 0
-0.427478 -0.273117 0.229052 0 0 0 255 0 0
-0.442236 -0.370004 0.209174 0 0 0 255 0 0
-0.456993 -0.466891 0.189297 0 0 0 255 0 0
-0.471751 -0.563778 0.169419 0 0 0 255 0 0
-0.0964192 1.25756 0.571736 0 0 0 255 0 0
-0.111177 1.16067 0.551859 0 0 0 255 0 0
-0.125935 1.06379 0.531981 0 0 0 255 0 0
-0.140693 0.966898 0.512103 0 0 0 255 0 0
-0.155451 0.870011 0.492225 0 0 0 255 0 0
-0.170209 0.773124 0.472347 0 0 0 255 0 0
-0.184967 0.676237 0.45247 0 0 0 255 0 0
-0.199725 0.57935 0.432592 0 0 0 255 0 0
-0.214483 0.482464 0.412714 0 0 0 255 0 0
-0.22924 0.385577 0.392836 0 0 0 255 0 0
-0.243998 0.28869 0.372959 0 0 0 255 0 0
-0.258756 0.191803 0.353081 0 0 0 255 0 0
-0.273514 0.0949158 0.333203 0 0 0 255 0 0
-0.288272 -0.0019711 0.313325 0 0 0 255 0 0
-0.30303 -0.098858 0.293447 0 0 0 255 0 0
-0.317788 -0.195745 0.27357 0 0 0 255 0 0
-0.332546 -0.292632 0.253692 0 0 0 255 0 0
-0.347304 -0.389519 0.233814 0 0 0 255 0 0
-0.362062 -0.486406 0.213936 0 0 0 255 0 0
-0.37682 -0.583293 0.194059 0 0 0 255 0 0
-0.00148746 1.23804 0.596376 0 0 0 255 0 0
-0.0162454 1.14116 0.576498 0 0 0 255 0 0
-0.0310033 1.04427 0.556621 0 0 0 255 0 0
-0.0457612 0.947383 0.536743 0 0 0 255 0 0
-0.0605191 0.850496 0.516865 0 0 0 255 0 0
-0.0752771 0.753609 0.496987 0 0 0 255 0 0
-0.090035 0.656722 0.47711 0 0 0 255 0 0
-0.104793 0.559835 0.457232 0 0 0 255 0 0
-0.119551 0.462948 0.437354 0 0 0 255 0 0
-0.134309 0.366061 0.417476 0 0 0 255 0 0
-0.149067 0.269174 0.397598 0 0 0 255 0 0
-0.163825 0.172287 0.377721 0 0 0 255 0 0
-0.178583 0.0754005 0.357843 0 0 0 255 0 0
-0.19334 -0.0214864 0.337965 0 0 0 255 0 0
-0.208098 -0.118373 0.318087 0 0 0 255 0 0
-0.222856 -0.21526 0.298209 0 0 0 255 0 0
-0.237614 -0.312147 0.278332 0 0 0 255 0 0
-0.252372 -0.409034 0.258454 0 0 0 255 0 0
-0.26713 -0.505921 0.238576 0 0 0 255 0 0
-0.281888 -0.602808 0.218698 0 0 0 255 0 0
0.0934443 1.21853 0.621016 0 0 0 255 0 0
0.0786864 1.12164 0.601138 0 0 0 255 0 0
0.0639284 1.02475 0.58126 0 0 0 255 0 0
0.0491705 0.927868 0.561383 0 0 0 255 0 0
0.0344126 0.830981 0.541505 0 0 0 255 0 0
0.0196547 0.734094 0.521627 0 0 0 255 0 0
0.00489674 0.637207 0.501749 0 0 0 255 0 0
-0.00986118 0.54032 0.481872 0 0 0 255 0 0
-0.0246191 0.443433 0.461994 0 0 0 255 0 0
-0.039377 0.346546 0.442116 0 0 0 255 0 0
-0.0541349 0.249659 0.422238 0 0 0 255 0 0
-0.0688929 0.152772 0.40236 0 0 0 255 0 0
-0.0836508 0.0558852 0.382483 0 0 0 255 0 0
-0.0984087 -0.0410017 0.362605 0 0 0 255 0 0
-0.113167 -0.137889 0.342727 0 0 0 255 0 0
-0.127925 -0.234776 0.322849 0 0 0 255 0 0
-0.142682 -0.331663 0.302972 0 0 0 255 0 0
-0.15744 -0.42855 0.283094 0 0 0 255 0 0
-0.172198 -0.525436 0.263216 0 0 0 255 0 0
-0.186956 -0.622323 0.243338 0 0 0 255 0 0
0.188376 1.19901 0.645656 0 0 0 255 0 0
0.173618 1.10213 0.625778 0 0 0 255 0 0
0.15886 1.00524 0.6059 0 0 0 255 0 0
0.144102 0.908352 0.586022 0 0 0 255 0 0
0.129344 0.811465 0.566145 0 0 0 255 0 0
0.114586 0.714578 0.546267 0 0 0 255 0 0
0.0998285 0.617691 0.526389 0 0 0 255 0 0
0.0850706 0.520805 0.506511 0 0 0 255 0 0
0.0703126 0.423918 0.486634 0 0 0 255 0 0
0.0555547 0.327031 0.466756 0 0 0 255 0 0
0.0407968 0.230144 0.446878 0 0 0 255 0 0
0.0260389 0.133257 0.427 0 0 0 255 0 0
0.011281 0.0363698 0.407122 0 0 0 255 0 0
-0.00347697 -0.0605171 0.387245 0 0 0 255 0 0
-0.0182349 -0.157404 0.367367 0 0 0 255 0 0
-0.0329928 -0.254291 0.347489 0 0 0 255 0 0
-0.0477507 -0.351178 0.327611 0 0 0 255 0 0
-0.0625087 -0.448065 0.307734 0 0 0 255 0 0
-0.0772666 -0.544952 0.287856 0 0 0 255 0 0
-0.0920245 -0.641839 0.267978 0 0 0 255 0 0
0.283308 1.1795 0.670296 0 0 0 255 0 0
0.26855 1.08261 0.650418 0 0 0 255 0 0
0.253792 0.985724 0.63054 0 0 0 255 0 0
0.239034 0.888837 0.610662 0 0 0 255 0 0
0.224276 0.79195 0.590785 0 0 0 255 0 0
0.209518 0.695063 0.570907 0 0 0 255 0 0
0.19476 0.598176 0.551029 0 0 0 255 0 0
0.180002 0.501289 0.531151 0 0 0 255 0 0
0.165244 0.404402 0.511273 0 0 0 255 0 0
0.150486 0.307515 0.491396 0 0 0 255 0 0
0.135729 0.210628 0.471518 0 0 0 255 0 0
0.120971 0.113741 0.45164 0 0 0 255 0 0
0.106213 0.0168545 0.431762 0 0 0 255 0 0
0.0914548 -0.0800324 0.411885 0 0 0 255 0 0
0.0766968 -0.176919 0.392007 0 0 0 255 0 0
0.0619389 -0.273806 0.372129 0 0 0 255 0 0
0.047181 -0.370693 0.352251 0 0 0 255 0 0
0.0324231 -0.46758 0.332373 0 0 0 255 0 0
0.0176651 -0.564467 0.312496 0 0 0 255 0 0
0.00290723 -0.661354 0.292618 0 0 0 255 0 0
0.378239 1.15998 0.694936 0 0 0 255 0 0
0.363481 1.0631 0.675058 0 0 0 255 0 0
0.348724 0.966209 0.65518 0 0 0 255 0 0
0.333966 0.869322 0.635302 0 0 0 255 0 0
0.319208 0.772435 0.615424 0 0 0 255 0 0
0.30445 0.675548 0.595547 0 0 0 255 0 0
0.289692 0.578661 0.575669 0 0 0 255 0 0
0.274934 0.481774 0.555791 0 0 0 255 0 0
0.260176 0.384887 0.535913 0 0 0 255 0 0
0.245418 0.288 0.516035 0 0 0 255 0 0
0.23066 0.191113 0.496158 0 0 0 255 0 0
0.215902 0.0942261 0.47628 0 0 0 255 0 0
0.201144 -0.00266081 0.456402 0 0 0 255 0 0
0.186386 -0.0995477 0.436524 0 0 0 255 0 0
0.171629 -0.196435 0.416647 0 0 0 255 0 0
0.156871 -0.293322 0.396769 0 0 0 255 0 0
0.142113 -0.390209 0.376891 0 0 0 255 0 0
0.127355 -0.487096 0.357013 0 0 0 255 0 0
0.112597 -0.583982 0.337135 0 0 0 255 0 0
0.0978389 -0.680869 0.317258 0 0 0 255 0 0
0.473171 1.14047 0.719575 0 0 0 255 0 0
0.458413 1.04358 0.699698 0 0 0 255 0 0
0.443655 0.946693 0.67982 0 0 0 255 0 0
0.428897 0.849806 0.659942 0 0 0 255 0 0
0.414139 0.752919 0.640064 0 0 0 255 0 0
0.399382 0.656032 0.620186 0 0 0 255 0 0
0.384624 0.559145 0.600309 0 0 0 255 0 0
0.369866 0.462259 0.580431 0 0 0 255 0 0
0.355108 0.365372 0.560553 0 0 0 255 0 0
0.34035 0.268485 0.540675 0 0 0 255 0 0
0.325592 0.171598 0.520798 0 0 0 255 0 0
0.310834 0.0747108 0.50092 0 0 0 255 0 0
0.296076 -0.0221761 0.481042 0 0 0 255 0 0
0.281318 -0.119063 0.461164 0 0 0 255 0 0
0.26656 -0.21595 0.441286 0 0 0 255 0 0
0.251802 -0.312837 0.421409 0 0 0 255 0 0
0.237044 -0.409724 0.401531 0 0 0 255 0 0
0.222286 -0.506611 0.381653 0 0 0 255 0 0
0.207529 -0.603498 0.361775 0 0 0 255 0 0
0.192771 -0.700385 0.341898 0 0 0 255 0 0
0.568103 1.12095 0.744215 0 0 0 255 0 0
0.553345 1.02406 0.724337 0 0 0 255 0 0
0.538587 0.927178 0.70446 0 0 0 255 0 0
0.523829 0.830291 0.684582 0 0 0 255 0 0
0.509071 0.733404 0.664704 0 0 0 255 0 0
0.494313 0.636517 0.644826 0 0 0 255 0 0
0.479555 0.53963 0.624949 0 0 0 255 0 0
0.464797 0.442743 0.605071 0 0 0 255 0 0
0.450039 0.345856 0.585193 0 0 0 255 0 0
0.435282 0.248969 0.565315 0 0 0 255 0 0
0.420524 0.152082 0.545437 0 0 0 255 0 0
0.405766 0.0551955 0.52556 0 0 0 255 0 0
0.391008 -0.0416915 0.505682 0 0 0 255 0 0
0.37625 -0.138578 0.485804 0 0 0 255 0 0
0.361492 -0.235465 0.465926 0 0 0 255 0 0
0.346734 -0.332352 0.446048 0 0 0 255 0 0
0.331976 -0.429239 0.426171 0 0 0 255 0 0
0.317218 -0.526126 0.406293 0 0 0 255 0 0
0.30246 -0.623013 0.386415 0 0 0 255 0 0
0.287702 -0.7199 0.366537 0 0 0 255 0 0
0.663035 1.10144 0.768855 0 0 0 255 0 0
0.648277 1.00455 0.748977 0 0 0 255 0 0
0.633519 0.907663 0.729099 0 0 0 255 0 0
0.618761 0.810776 0.709222 0 0 0 255 0 0
0.604003 0.713889 0.689344 0 0 0 255 0 0
0.589245 0.617002 0.669466 0 0 0 255 0 0
0.574487 0.520115 0.649588 0 0 0 255 0 0
0.559729 0.423228 0.629711 0 0 0 255 0 0
0.544971 0.326341 0.609833 0 0 0 255 0 0
0.530213 0.229454 0.589955 0 0 0 255 0 0
0.515455 0.132567 0.570077 0 0 0 255 0 0
0.500697 0.0356801 0.550199 0 0 0 255 0 0
0.48594 -0.0612068 0.530322 0 0 0 255 0 0
0.471182 -0.158094 0.510444 0 0 0 255 0 0
0.456424 -0.254981 0.490566 0 0 0 255 0 0
0.441666 -0.351868 0.470688 0 0 0 255 0 0
0.426908 -0.448754 0.450811 0 0 0 255 0 0
0.41215 -0.545641 0.430933 0 0 0 255 0 0
0.397392 -0.642528 0.411055 0 0 0 255 0 0
0.382634 -0.739415 0.391177 0 0 0 255 0 0
0.757966 1.08192 0.793495 0 0 0 255 0 0
0.743208 0.985034 0.773617 0 0 0 255 0 0
0.72845 0.888147 0.753739 0 0 0 255 0 0
0.713693 0.79126 0.733862 0 0 0 255 0 0
0.698935 0.694373 0.713984 0 0 0 255 0 0
0.684177 0.597486 0.694106 0 0 0 255 0 0
0.669419 0.5006 0.674228 0 0 0 255 0 0
0.654661 0.403713 0.65435 0 0 0 255 0 0
0.639903 0.306826 0.634473 0 0 0 255 0 0
0.625145 0.209939 0.614595 0 0 0 255 0 0
0.610387 0.113052 0.594717 0 0 0 255 0 0
0.595629 0.0161648 0.574839 0 0 0 255 0 0
0.580871 -0.0807221 0.554961 0 0 0 255 0 0
0.566113 -0.177609 0.535084 0 0 0 255 0 0
0.551355 -0.274496 0.515206 0 0 0 255 0 0
0.536598 -0.371383 0.495328 0 0 0 255 0 0
0.52184 -0.46827 0.47545 0 0 0 255 0 0
0.507082 -0.565157 0.455573 0 0 0 255 0 0
0.492324 -0.662044 0.435695 0 0 0 255 0 0
0.477566 -0.758931 0.415817 0 0 0 255 0 0
0.852898 1.06241 0.818135 0 0 0 255 0 0
0.83814 0.965519 0.798257 0 0 0 255 0 0
0.823382 0.868632 0.778379 0 0 0 255 0 0
0.808624 0.771745 0.758501 0 0 0 255 0 0
0.793866 0.674858 0.738624 0 0 0 255 0 0
0.779108 0.577971 0.718746 0 0 0 255 0 0
0.764351 0.481084 0.698868 0 0 0 255 0 0
0.749593 0.384197 0.67899 0 0 0 255 0 0
0.734835 0.28731 0.659112 0 0 0 255 0 0
0.720077 0.190423 0.639235 0 0 0 255 0 0
0.705319 0.0935364 0.619357 0 0 0 255 0 0
0.690561 -0.0033505 0.599479 0 0 0 255 0 0
0.675803 -0.100237 0.579601 0 0 0 255 0 0
0.661045 -0.197124 0.559723 0 0 0 255 0 0
0.646287 -0.294011 0.539846 0 0 0 255 0 0
0.631529 -0.390898 0.519968 0 0 0 255 0 0
0.616771 -0.487785 0.50009 0 0 0 255 0 0
0.602013 -0.584672 0.480212 0 0 0 255 0 0
0.587255 -0.681559 0.460335 0 0 0 255 0 0
0.572498 -0.778446 0.440457 0 0 0 255 0 0
0.94783 1.04289 0.842775 0 0 0 255 0 0
0.933072 0.946004 0.822897 0 0 0 255 0 0
0.918314 0.849117 0.803019 0 0 0 255 0 0
0.903556 0.75223 0.783141 0 0 0 255 0 0
0.888798 0.655343 0.763263 0 0 0 255 0 0
0.87404 0.558456 0.743386 0 0 0 255 0 0
0.859282 0.461569 0.723508 0 0 0 255 0 0
0.844524 0.364682 0.70363 0 0 0 255 0 0
0.829766 0.267795 0.683752 0 0 0 255 0 0
0.815009 0.170908 0.663875 0 0 0 255 0 0
0.800251 0.0740211 0.643997 0 0 0 255 0 0
0.785493 -0.0228658 0.624119 0 0 0 255 0 0
0.770735 -0.119753 0.604241 0 0 0 255 0 0
0.755977 -0.21664 0.584363 0 0 0 255 0 0
0.741219 -0.313527 0.564486 0 0 0 255 0 0
0.726461 -0.410414 0.544608 0 0 0 255 0 0
0.711703 -0.5073 0.52473 0 0 0 255 0 0
0.696945 -0.604187 0.504852 0 0 0 255 0 0
0.682187 -0.701074 0.484974 0 0 0 255 0 0
0.667429 -0.797961 0.465097 0 0 0 255 0 0
