ply
format ascii 1.0
element vertex 1205
property float x
property float y
property float z
property float nx
property float ny
property float nz
property uchar red
property uchar green
property uchar blue
end_header
152.09 -171.354 -32.0058 0 0 0 255 0 0
152.09 -175.239 -32.7315 0 0 0 255 0 0
152.09 -179.125 -33.4573 0 0 0 255 0 0
152.09 -183.01 -34.183 0 0 0 255 0 0
152.09 -186.896 -34.9088 0 0 0 255 0 0
152.09 -190.781 -35.6345 0 0 0 255 0 0
152.09 -194.667 -36.3603 0 0 0 255 0 0
152.09 -198.553 -37.0861 0 0 0 255 0 0
152.09 -202.438 -37.8118 0 0 0 255 0 0
152.09 -206.324 -38.5376 0 0 0 255 0 0
152.09 -210.209 -39.2633 0 0 0 255 0 0
152.09 -214.095 -39.9891 0 0 0 255 0 0
152.09 -217.98 -40.7148 0 0 0 255 0 0
152.09 -221.866 -41.4406 0 0 0 255 0 0
152.09 -225.751 -42.1663 0 0 0 255 0 0
152.09 -229.637 -42.8921 0 0 0 255 0 0
156.082 -0.388557 -0.0725754 0 0 0 255 0 0
156.082 -4.27412 -0.79833 0 0 0 255 0 0
156.082 -8.15969 -1.52408 0 0 0 255 0 0
156.082 -12.0453 -2.24984 0 0 0 255 0 0
156.082 -15.9308 -2.97559 0 0 0 255 0 0
156.082 -19.8164 -3.70135 0 0 0 255 0 0
156.082 -23.702 -4.4271 0 0 0 255 0 0
156.082 -27.5875 -5.15286 0 0 0 255 0 0
156.082 -31.4731 -5.87861 0 0 0 255 0 0
156.082 -35.3587 -6.60437 0 0 0 255 0 0
156.082 -39.2442 -7.33012 0 0 0 255 0 0
156.082 -43.1298 -8.05587 0 0 0 255 0 0
156.082 -47.0154 -8.78163 0 0 0 255 0 0
156.082 -50.9009 -9.50738 0 0 0 255 0 0
156.082 -54.7865 -10.2331 0 0 0 255 0 0
156.082 -58.6721 -10.9589 0 0 0 255 0 0
156.082 -62.5576 -11.6846 0 0 0 255 0 0
156.082 -66.4432 -12.4104 0 0 0 255 0 0
156.082 -70.3288 -13.1362 0 0 0 255 0 0
156.082 -74.2143 -13.8619 0 0 0 255 0 0
156.082 -78.0999 -14.5877 0 0 0 255 0 0
156.082 -81.9855 -15.3134 0 0 0 255 0 0
156.082 -85.8711 -16.0392 0 0 0 255 0 0
156.082 -89.7566 -16.7649 0 0 0 255 0 0
156.082 -93.6422 -17.4907 0 0 0 255 0 0
156.082 -97.5278 -18.2164 0 0 0 255 0 0
156.082 -101.413 -18.9422 0 0 0 255 0 0
156.082 -105.299 -19.6679 0 0 0 255 0 0
156.082 -109.184 -20.3937 0 0 0 255 0 0
156.082 -113.07 -21.1195 0 0 0 255 0 0
156.082 -116.956 -21.8452 0 0 0 255 0 0
156.082 -120.841 -22.571 0 0 0 255 0 0
156.082 -124.727 -23.2967 0 0 0 255 0 0
156.082 -128.612 -24.0225 0 0 0 255 0 0
156.082 -132.498 -24.7482 0 0 0 255 0 0
156.082 -136.383 -25.474 0 0 0 255 0 0
156.082 -140.269 -26.1997 0 0 0 255 0 0
156.082 -144.155 -26.9255 0 0 0 255 0 0
156.082 -148.04 -27.6512 0 0 0 255 0 0
156.082 -151.926 -28.377 0 0 0 255 0 0
156.082 -155.811 -29.1028 0 0 0 255 0 0
156.082 -159.697 -29.8285 0 0 0 255 0 0
156.082 -163.582 -30.5543 0 0 0 255 0 0
156.082 -167.468 -31.28 0 0 0 255 0 0
156.082 -171.354 -32.0058 0 0 0 255 0 0
156.082 -175.239 -32.7315 0 0 0 255 0 0
156.082 -179.125 -33.4573 0 0 0 255 0 0
156.082 -183.01 -34.183 0 0 0 255 0 0
156.082 -186.896 -34.9088 0 0 0 255 0 0
156.082 -190.781 -35.6345 0 0 0 255 0 0
156.082 -194.667 -36.3603 0 0 0 255 0 0
156.082 -198.553 -37.0861 0 0 0 255 0 0
156.082 -202.438 -37.8118 0 0 0 255 0 0
156.082 -206.324 -38.5376 0 0 0 255 0 0
156.082 -210.209 -39.2633 0 0 0 255 0 0
156.082 -214.095 -39.9891 0 0 0 255 0 0
156.082 -217.98 -40.7148 0 0 0 255 0 0
156.082 -221.866 -41.4406 0 0 0 255 0 0
156.082 -225.751 -42.1663 0 0 0 255 0 0
156.082 -229.637 -42.8921 0 0 0 255 0 0
160.073 -0.388557 -0.0725754 0 0 0 255 0 0
160.073 -4.27412 -0.79833 0 0 0 255 0 0
160.073 -8.15969 -1.52408 0 0 0 255 0 0
160.073 -12.0453 -2.24984 0 0 0 255 0 0
160.073 -15.9308 -2.97559 0 0 0 255 0 0
160.073 -19.8164 -3.70135 0 0 0 255 0 0
160.073 -23.702 -4.4271 0 0 0 255 0 0
160.073 -27.5875 -5.15286 0 0 0 255 0 0
160.073 -31.4731 -5.87861 0 0 0 255 0 0
160.073 -35.3587 -6.60437 0 0 0 255 0 0
160.073 -39.2442 -7.33012 0 0 0 255 0 0
160.073 -43.1298 -8.05587 0 0 0 255 0 0
160.073 -47.0154 -8.78163 0 0 0 255 0 0
160.073 -50.9009 -9.50738 0 0 0 255 0 0
160.073 -54.7865 -10.2331 0 0 0 255 0 0
160.073 -58.6721 -10.9589 0 0 0 255 0 0
160.073 -62.5576 -11.6846 0 0 0 255 0 0
160.073 -66.4432 -12.4104 0 0 0 255 0 0
160.073 -70.3288 -13.1362 0 0 0 255 0 0
160.073 -74.2143 -13.8619 0 0 0 255 0 0
160.073 -78.0999 -14.5877 0 0 0 255 0 0
160.073 -81.9855 -15.3134 0 0 0 255 0 0
160.073 -85.8711 -16.0392 0 0 0 255 0 0
160.073 -89.7566 -16.7649 0 0 0 255 0 0
160.073 -93.6422 -17.4907 0 0 0 255 0 0
160.073 -97.5278 -18.2164 0 0 0 255 0 0
160.073 -101.413 -18.9422 0 0 0 255 0 0
160.073 -105.299 -19.6679 0 0 0 255 0 0
160.073 -109.184 -20.3937 0 0 0 255 0 0
160.073 -113.07 -21.1195 0 0 0 255 0 0
160.073 -116.956 -21.8452 0 0 0 255 0 0
160.073 -120.841 -22.571 0 0 0 255 0 0
160.073 -124.727 -23.2967 0 0 0 255 0 0
160.073 -128.612 -24.0225 0 0 0 255 0 0
160.073 -132.498 -24.7482 0 0 0 255 0 0
160.073 -136.383 -25.474 0 0 0 255 0 0
160.073 -140.269 -26.1997 0 0 0 255 0 0
160.073 -144.155 -26.9255 0 0 0 255 0 0
160.073 -148.04 -27.6512 0 0 0 255 0 0
160.073 -151.926 -28.377 0 0 0 255 0 0
160.073 -155.811 -29.1028 0 0 0 255 0 0
160.073 -159.697 -29.8285 0 0 0 255 0 0
160.073 -163.582 -30.5543 0 0 0 255 0 0
160.073 -167.468 -31.28 0 0 0 255 0 0
160.073 -171.354 -32.0058 0 0 0 255 0 0
160.073 -175.239 -32.7315 0 0 0 255 0 0
160.073 -179.125 -33.4573 0 0 0 255 0 0
160.073 -183.01 -34.183 0 0 0 255 0 0
160.073 -186.896 -34.9088 0 0 0 255 0 0
160.073 -190.781 -35.6345 0 0 0 255 0 0
160.073 -194.667 -36.3603 0 0 0 255 0 0
160.073 -198.553 -37.0861 0 0 0 255 0 0
160.073 -202.438 -37.8118 0 0 0 255 0 0
160.073 -206.324 -38.5376 0 0 0 255 0 0
160.073 -210.209 -39.2633 0 0 0 255 0 0
160.073 -214.095 -39.9891 0 0 0 255 0 0
160.073 -217.98 -40.7148 0 0 0 255 0 0
160.073 -221.866 -41.4406 0 0 0 255 0 0
160.073 -225.751 -42.1663 0 0 0 255 0 0
160.073 -229.637 -42.8921 0 0 0 255 0 0
164.065 -0.388557 -0.0725754 0 0 0 255 0 0
164.065 -4.27412 -0.79833 0 0 0 255 0 0
164.065 -8.15969 -1.52408 0 0 0 255 0 0
164.065 -12.0453 -2.24984 0 0 0 255 0 0
164.065 -15.9308 -2.97559 0 0 0 255 0 0
164.065 -19.8164 -3.70135 0 0 0 255 0 0
164.065 -23.702 -4.4271 0 0 0 255 0 0
164.065 -27.5875 -5.15286 0 0 0 255 0 0
164.065 -31.4731 -5.87861 0 0 0 255 0 0
164.065 -35.3587 -6.60437 0 0 0 255 0 0
164.065 -39.2442 -7.33012 0 0 0 255 0 0
164.065 -43.1298 -8.05587 0 0 0 255 0 0
164.065 -47.0154 -8.78163 0 0 0 255 0 0
164.065 -50.9009 -9.50738 0 0 0 255 0 0
164.065 -54.7865 -10.2331 0 0 0 255 0 0
164.065 -58.6721 -10.9589 0 0 0 255 0 0
164.065 -62.5576 -11.6846 0 0 0 255 0 0
164.065 -66.4432 -12.4104 0 0 0 255 0 0
164.065 -70.3288 -13.1362 0 0 0 255 0 0
164.065 -74.2143 -13.8619 0 0 0 255 0 0
164.065 -78.0999 -14.5877 0 0 0 255 0 0
164.065 -81.9855 -15.3134 0 0 0 255 0 0
164.065 -85.8711 -16.0392 0 0 0 255 0 0
164.065 -89.7566 -16.7649 0 0 0 255 0 0
164.065 -93.6422 -17.4907 0 0 0 255 0 0
164.065 -97.5278 -18.2164 0 0 0 255 0 0
164.065 -101.413 -18.9422 0 0 0 255 0 0
164.065 -105.299 -19.6679 0 0 0 255 0 0
164.065 -109.184 -20.3937 0 0 0 255 0 0
164.065 -113.07 -21.1195 0 0 0 255 0 0
164.065 -116.956 -21.8452 0 0 0 255 0 0
164.065 -120.841 -22.571 0 0 0 255 0 0
164.065 -124.727 -23.2967 0 0 0 255 0 0
164.065 -128.612 -24.0225 0 0 0 255 0 0
164.065 -132.498 -24.7482 0 0 0 255 0 0
164.065 -136.383 -25.474 0 0 0 255 0 0
164.065 -140.269 -26.1997 0 0 0 255 0 0
164.065 -144.155 -26.9255 0 0 0 255 0 0
164.065 -148.04 -27.6512 0 0 0 255 0 0
164.065 -151.926 -28.377 0 0 0 255 0 0
164.065 -155.811 -29.1028 0 0 0 255 0 0
164.065 -159.697 -29.8285 0 0 0 255 0 0
164.065 -163.582 -30.5543 0 0 0 255 0 0
164.065 -167.468 -31.28 0 0 0 255 0 0
164.065 -171.354 -32.0058 0 0 0 255 0 0
164.065 -175.239 -32.7315 0 0 0 255 0 0
164.065 -179.125 -33.4573 0 0 0 255 0 0
164.065 -183.01 -34.183 0 0 0 255 0 0
164.065 -186.896 -34.9088 0 0 0 255 0 0
164.065 -190.781 -35.6345 0 0 0 255 0 0
164.065 -194.667 -36.3603 0 0 0 255 0 0
164.065 -198.553 -37.0861 0 0 0 255 0 0
164.065 -202.438 -37.8118 0 0 0 255 0 0
164.065 -206.324 -38.5376 0 0 0 255 0 0
164.065 -210.209 -39.2633 0 0 0 255 0 0
164.065 -214.095 -39.9891 0 0 0 255 0 0
164.065 -217.98 -40.7148 0 0 0 255 0 0
164.065 -221.866 -41.4406 0 0 0 255 0 0
164.065 -225.751 -42.1663 0 0 0 255 0 0
164.065 -229.637 -42.8921 0 0 0 255 0 0
168.057 -0.388557 -0.0725754 0 0 0 255 0 0
168.057 -4.27412 -0.79833 0 0 0 255 0 0
168.057 -8.15969 -1.52408 0 0 0 255 0 0
168.057 -12.0453 -2.24984 0 0 0 255 0 0
168.057 -15.9308 -2.97559 0 0 0 255 0 0
168.057 -19.8164 -3.70135 0 0 0 255 0 0
168.057 -23.702 -4.4271 0 0 0 255 0 0
168.057 -27.5875 -5.15286 0 0 0 255 0 0
168.057 -31.4731 -5.87861 0 0 0 255 0 0
168.057 -35.3587 -6.60437 0 0 0 255 0 0
168.057 -39.2442 -7.33012 0 0 0 255 0 0
168.057 -43.1298 -8.05587 0 0 0 255 0 0
168.057 -47.0154 -8.78163 0 0 0 255 0 0
168.057 -50.9009 -9.50738 0 0 0 255 0 0
168.057 -54.7865 -10.2331 0 0 0 255 0 0
168.057 -58.6721 -10.9589 0 0 0 255 0 0
168.057 -62.5576 -11.6846 0 0 0 255 0 0
168.057 -66.4432 -12.4104 0 0 0 255 0 0
168.057 -70.3288 -13.1362 0 0 0 255 0 0
168.057 -74.2143 -13.8619 0 0 0 255 0 0
168.057 -78.0999 -14.5877 0 0 0 255 0 0
168.057 -81.9855 -15.3134 0 0 0 255 0 0
168.057 -85.8711 -16.0392 0 0 0 255 0 0
168.057 -89.7566 -16.7649 0 0 0 255 0 0
168.057 -93.6422 -17.4907 0 0 0 255 0 0
168.057 -97.5278 -18.2164 0 0 0 255 0 0
168.057 -101.413 -18.9422 0 0 0 255 0 0
168.057 -105.299 -19.6679 0 0 0 255 0 0
168.057 -109.184 -20.3937 0 0 0 255 0 0
168.057 -113.07 -21.1195 0 0 0 255 0 0
168.057 -116.956 -21.8452 0 0 0 255 0 0
168.057 -120.841 -22.571 0 0 0 255 0 0
168.057 -124.727 -23.2967 0 0 0 255 0 0
168.057 -128.612 -24.0225 0 0 0 255 0 0
168.057 -132.498 -24.7482 0 0 0 255 0 0
168.057 -136.383 -25.474 0 0 0 255 0 0
168.057 -140.269 -26.1997 0 0 0 255 0 0
168.057 -144.155 -26.9255 0 0 0 255 0 0
168.057 -148.04 -27.6512 0 0 0 255 0 0
168.057 -151.926 -28.377 0 0 0 255 0 0
168.057 -155.811 -29.1028 0 0 0 255 0 0
168.057 -159.697 -29.8285 0 0 0 255 0 0
168.057 -163.582 -30.5543 0 0 0 255 0 0
168.057 -167.468 -31.28 0 0 0 255 0 0
168.057 -171.354 -32.0058 0 0 0 255 0 0
168.057 -175.239 -32.7315 0 0 0 255 0 0
168.057 -179.125 -33.4573 0 0 0 255 0 0
168.057 -183.01 -34.183 0 0 0 255 0 0
168.057 -186.896 -34.9088 0 0 0 255 0 0
168.057 -190.781 -35.6345 0 0 0 255 0 0
168.057 -194.667 -36.3603 0 0 0 255 0 0
168.057 -198.553 -37.0861 0 0 0 255 0 0
168.057 -202.438 -37.8118 0 0 0 255 0 0
168.057 -206.324 -38.5376 0 0 0 255 0 0
168.057 -210.209 -39.2633 0 0 0 255 0 0
168.057 -214.095 -39.9891 0 0 0 255 0 0
168.057 -217.98 -40.7148 0 0 0 255 0 0
168.057 -221.866 -41.4406 0 0 0 255 0 0
168.057 -225.751 -42.1663 0 0 0 255 0 0
168.057 -229.637 -42.8921 0 0 0 255 0 0
172.049 -0.388557 -0.0725754 0 0 0 255 0 0
172.049 -4.27412 -0.79833 0 0 0 255 0 0
172.049 -8.15969 -1.52408 0 0 0 255 0 0
172.049 -12.0453 -2.24984 0 0 0 255 0 0
172.049 -15.9308 -2.97559 0 0 0 255 0 0
172.049 -19.8164 -3.70135 0 0 0 255 0 0
172.049 -23.702 -4.4271 0 0 0 255 0 0
172.049 -27.5875 -5.15286 0 0 0 255 0 0
172.049 -31.4731 -5.87861 0 0 0 255 0 0
172.049 -35.3587 -6.60437 0 0 0 255 0 0
172.049 -39.2442 -7.33012 0 0 0 255 0 0
172.049 -43.1298 -8.05587 0 0 0 255 0 0
172.049 -47.0154 -8.78163 0 0 0 255 0 0
172.049 -50.9009 -9.50738 0 0 0 255 0 0
172.049 -54.7865 -10.2331 0 0 0 255 0 0
172.049 -58.6721 -10.9589 0 0 0 255 0 0
172.049 -62.5576 -11.6846 0 0 0 255 0 0
172.049 -66.4432 -12.4104 0 0 0 255 0 0
172.049 -70.3288 -13.1362 0 0 0 255 0 0
172.049 -74.2143 -13.8619 0 0 0 255 0 0
172.049 -78.0999 -14.5877 0 0 0 255 0 0
172.049 -81.9855 -15.3134 0 0 0 255 0 0
172.049 -85.8711 -16.0392 0 0 0 255 0 0
172.049 -89.7566 -16.7649 0 0 0 255 0 0
172.049 -93.6422 -17.4907 0 0 0 255 0 0
172.049 -97.5278 -18.2164 0 0 0 255 0 0
172.049 -101.413 -18.9422 0 0 0 255 0 0
172.049 -105.299 -19.6679 0 0 0 255 0 0
172.049 -109.184 -20.3937 0 0 0 255 0 0
172.049 -113.07 -21.1195 0 0 0 255 0 0
172.049 -116.956 -21.8452 0 0 0 255 0 0
172.049 -120.841 -22.571 0 0 0 255 0 0
172.049 -124.727 -23.2967 0 0 0 255 0 0
172.049 -128.612 -24.0225 0 0 0 255 0 0
172.049 -132.498 -24.7482 0 0 0 255 0 0
172.049 -136.383 -25.474 0 0 0 255 0 0
172.049 -140.269 -26.1997 0 0 0 255 0 0
172.049 -144.155 -26.9255 0 0 0 255 0 0
172.049 -148.04 -27.6512 0 0 0 255 0 0
172.049 -151.926 -28.377 0 0 0 255 0 0
172.049 -155.811 -29.1028 0 0 0 255 0 0
172.049 -159.697 -29.8285 0 0 0 255 0 0
172.049 -163.582 -30.5543 0 0 0 255 0 0
172.049 -167.468 -31.28 0 0 0 255 0 0
172.049 -171.354 -32.0058 0 0 0 255 0 0
172.049 -175.239 -32.7315 0 0 0 255 0 0
172.049 -179.125 -33.4573 0 0 0 255 0 0
172.049 -183.01 -34.183 0 0 0 255 0 0
172.049 -186.896 -34.9088 0 0 0 255 0 0
172.049 -190.781 -35.6345 0 0 0 255 0 0
172.049 -194.667 -36.3603 0 0 0 255 0 0
172.049 -198.553 -37.0861 0 0 0 255 0 0
172.049 -202.438 -37.8118 0 0 0 255 0 0
172.049 -206.324 -38.5376 0 0 0 255 0 0
172.049 -210.209 -39.2633 0 0 0 255 0 0
172.049 -214.095 -39.9891 0 0 0 255 0 0
172.049 -217.98 -40.7148 0 0 0 255 0 0
172.049 -221.866 -41.4406 0 0 0 255 0 0
172.049 -225.751 -42.1663 0 0 0 255 0 0
172.049 -229.637 -42.8921 0 0 0 255 0 0
176.041 -0.388557 -0.0725754 0 0 0 255 0 0
176.041 -4.27412 -0.79833 0 0 0 255 0 0
176.041 -8.15969 -1.52408 0 0 0 255 0 0
176.041 -12.0453 -2.24984 0 0 0 255 0 0
176.041 -15.9308 -2.97559 0 0 0 255 0 0
176.041 -19.8164 -3.70135 0 0 0 255 0 0
176.041 -23.702 -4.4271 0 0 0 255 0 0
176.041 -27.5875 -5.15286 0 0 0 255 0 0
176.041 -31.4731 -5.87861 0 0 0 255 0 0
176.041 -35.3587 -6.60437 0 0 0 255 0 0
176.041 -39.2442 -7.33012 0 0 0 255 0 0
176.041 -43.1298 -8.05587 0 0 0 255 0 0
176.041 -47.0154 -8.78163 0 0 0 255 0 0
176.041 -50.9009 -9.50738 0 0 0 255 0 0
176.041 -54.7865 -10.2331 0 0 0 255 0 0
176.041 -58.6721 -10.9589 0 0 0 255 0 0
176.041 -62.5576 -11.6846 0 0 0 255 0 0
176.041 -66.4432 -12.4104 0 0 0 255 0 0
176.041 -70.3288 -13.1362 0 0 0 255 0 0
176.041 -74.2143 -13.8619 0 0 0 255 0 0
176.041 -78.0999 -14.5877 0 0 0 255 0 0
176.041 -81.9855 -15.3134 0 0 0 255 0 0
176.041 -85.8711 -16.0392 0 0 0 255 0 0
176.041 -89.7566 -16.7649 0 0 0 255 0 0
176.041 -93.6422 -17.4907 0 0 0 255 0 0
176.041 -97.5278 -18.2164 0 0 0 255 0 0
176.041 -101.413 -18.9422 0 0 0 255 0 0
176.041 -105.299 -19.6679 0 0 0 255 0 0
176.041 -109.184 -20.3937 0 0 0 255 0 0
176.041 -113.07 -21.1195 0 0 0 255 0 0
176.041 -116.956 -21.8452 0 0 0 255 0 0
176.041 -120.841 -22.571 0 0 0 255 0 0
176.041 -124.727 -23.2967 0 0 0 255 0 0
176.041 -128.612 -24.0225 0 0 0 255 0 0
176.041 -132.498 -24.7482 0 0 0 255 0 0
176.041 -136.383 -25.474 0 0 0 255 0 0
176.041 -140.269 -26.1997 0 0 0 255 0 0
176.041 -144.155 -26.9255 0 0 0 255 0 0
176.041 -148.04 -27.6512 0 0 0 255 0 0
176.041 -151.926 -28.377 0 0 0 255 0 0
176.041 -155.811 -29.1028 0 0 0 255 0 0
176.041 -159.697 -29.8285 0 0 0 255 0 0
176.041 -163.582 -30.5543 0 0 0 255 0 0
176.041 -167.468 -31.28 0 0 0 255 0 0
176.041 -171.354 -32.0058 0 0 0 255 0 0
176.041 -175.239 -32.7315 0 0 0 255 0 0
176.041 -179.125 -33.4573 0 0 0 255 0 0
176.041 -183.01 -34.183 0 0 0 255 0 0
176.041 -186.896 -34.9088 0 0 0 255 0 0
176.041 -190.781 -35.6345 0 0 0 255 0 0
176.041 -194.667 -36.3603 0 0 0 255 0 0
176.041 -198.553 -37.0861 0 0 0 255 0 0
176.041 -202.438 -37.8118 0 0 0 255 0 0
176.041 -206.324 -38.5376 0 0 0 255 0 0
176.041 -210.209 -39.2633 0 0 0 255 0 0
176.041 -214.095 -39.9891 0 0 0 255 0 0
176.041 -217.98 -40.7148 0 0 0 255 0 0
176.041 -221.866 -41.4406 0 0 0 255 0 0
176.041 -225.751 -42.1663 0 0 0 255 0 0
176.041 -229.637 -42.8921 0 0 0 255 0 0
180.033 -0.388557 -0.0725754 0 0 0 255 0 0
180.033 -4.27412 -0.79833 0 0 0 255 0 0
180.033 -8.15969 -1.52408 0 0 0 255 0 0
180.033 -12.0453 -2.24984 0 0 0 255 0 0
180.033 -15.9308 -2.97559 0 0 0 255 0 0
180.033 -19.8164 -3.70135 0 0 0 255 0 0
180.033 -23.702 -4.4271 0 0 0 255 0 0
180.033 -27.5875 -5.15286 0 0 0 255 0 0
180.033 -31.4731 -5.87861 0 0 0 255 0 0
180.033 -35.3587 -6.60437 0 0 0 255 0 0
180.033 -39.2442 -7.33012 0 0 0 255 0 0
180.033 -43.1298 -8.05587 0 0 0 255 0 0
180.033 -47.0154 -8.78163 0 0 0 255 0 0
180.033 -50.9009 -9.50738 0 0 0 255 0 0
180.033 -54.7865 -10.2331 0 0 0 255 0 0
180.033 -58.6721 -10.9589 0 0 0 255 0 0
180.033 -62.5576 -11.6846 0 0 0 255 0 0
180.033 -66.4432 -12.4104 0 0 0 255 0 0
180.033 -70.3288 -13.1362 0 0 0 255 0 0
180.033 -74.2143 -13.8619 0 0 0 255 0 0
180.033 -78.0999 -14.5877 0 0 0 255 0 0
180.033 -81.9855 -15.3134 0 0 0 255 0 0
180.033 -85.8711 -16.0392 0 0 0 255 0 0
180.033 -89.7566 -16.7649 0 0 0 255 0 0
180.033 -93.6422 -17.4907 0 0 0 255 0 0
180.033 -97.5278 -18.2164 0 0 0 255 0 0
180.033 -101.413 -18.9422 0 0 0 255 0 0
180.033 -105.299 -19.6679 0 0 0 255 0 0
180.033 -109.184 -20.3937 0 0 0 255 0 0
180.033 -113.07 -21.1195 0 0 0 255 0 0
180.033 -116.956 -21.8452 0 0 0 255 0 0
180.033 -120.841 -22.571 0 0 0 255 0 0
180.033 -124.727 -23.2967 0 0 0 255 0 0
180.033 -128.612 -24.0225 0 0 0 255 0 0
180.033 -132.498 -24.7482 0 0 0 255 0 0
180.033 -136.383 -25.474 0 0 0 255 0 0
180.033 -140.269 -26.1997 0 0 0 255 0 0
180.033 -144.155 -26.9255 0 0 0 255 0 0
180.033 -148.04 -27.6512 0 0 0 255 0 0
180.033 -151.926 -28.377 0 0 0 255 0 0
180.033 -155.811 -29.1028 0 0 0 255 0 0
180.033 -159.697 -29.8285 0 0 0 255 0 0
180.033 -163.582 -30.5543 0 0 0 255 0 0
180.033 -167.468 -31.28 0 0 0 255 0 0
180.033 -171.354 -32.0058 0 0 0 255 0 0
180.033 -175.239 -32.7315 0 0 0 255 0 0
180.033 -179.125 -33.4573 0 0 0 255 0 0
180.033 -183.01 -34.183 0 0 0 255 0 0
180.033 -186.896 -34.9088 0 0 0 255 0 0
180.033 -190.781 -35.6345 0 0 0 255 0 0
180.033 -194.667 -36.3603 0 0 0 255 0 0
180.033 -198.553 -37.0861 0 0 0 255 0 0
180.033 -202.438 -37.8118 0 0 0 255 0 0
180.033 -206.324 -38.5376 0 0 0 255 0 0
180.033 -210.209 -39.2633 0 0 0 255 0 0
180.033 -214.095 -39.9891 0 0 0 255 0 0
180.033 -217.98 -40.7148 0 0 0 255 0 0
180.033 -221.866 -41.4406 0 0 0 255 0 0
180.033 -225.751 -42.1663 0 0 0 255 0 0
180.033 -229.637 -42.8921 0 0 0 255 0 0
184.025 -0.388557 -0.0725754 0 0 0 255 0 0
184.025 -4.27412 -0.79833 0 0 0 255 0 0
184.025 -8.15969 -1.52408 0 0 0 255 0 0
184.025 -12.0453 -2.24984 0 0 0 255 0 0
184.025 -15.9308 -2.97559 0 0 0 255 0 0
184.025 -19.8164 -3.70135 0 0 0 255 0 0
184.025 -23.702 -4.4271 0 0 0 255 0 0
184.025 -27.5875 -5.15286 0 0 0 255 0 0
184.025 -31.4731 -5.87861 0 0 0 255 0 0
184.025 -35.3587 -6.60437 0 0 0 255 0 0
184.025 -39.2442 -7.33012 0 0 0 255 0 0
184.025 -43.1298 -8.05587 0 0 0 255 0 0
184.025 -47.0154 -8.78163 0 0 0 255 0 0
184.025 -50.9009 -9.50738 0 0 0 255 0 0
184.025 -54.7865 -10.2331 0 0 0 255 0 0
184.025 -58.6721 -10.9589 0 0 0 255 0 0
184.025 -62.5576 -11.6846 0 0 0 255 0 0
184.025 -66.4432 -12.4104 0 0 0 255 0 0
184.025 -70.3288 -13.1362 0 0 0 255 0 0
184.025 -74.2143 -13.8619 0 0 0 255 0 0
184.025 -78.0999 -14.5877 0 0 0 255 0 0
184.025 -81.9855 -15.3134 0 0 0 255 0 0
184.025 -85.8711 -16.0392 0 0 0 255 0 0
184.025 -89.7566 -16.7649 0 0 0 255 0 0
184.025 -93.6422 -17.4907 0 0 0 255 0 0
184.025 -97.5278 -18.2164 0 0 0 255 0 0
184.025 -101.413 -18.9422 0 0 0 255 0 0
184.025 -105.299 -19.6679 0 0 0 255 0 0
184.025 -109.184 -20.3937 0 0 0 255 0 0
184.025 -113.07 -21.1195 0 0 0 255 0 0
184.025 -116.956 -21.8452 0 0 0 255 0 0
184.025 -120.841 -22.571 0 0 0 255 0 0
184.025 -124.727 -23.2967 0 0 0 255 0 0
184.025 -128.612 -24.0225 0 0 0 255 0 0
184.025 -132.498 -24.7482 0 0 0 255 0 0
184.025 -136.383 -25.474 0 0 0 255 0 0
184.025 -140.269 -26.1997 0 0 0 255 0 0
184.025 -144.155 -26.9255 0 0 0 255 0 0
184.025 -148.04 -27.6512 0 0 0 255 0 0
184.025 -151.926 -28.377 0 0 0 255 0 0
184.025 -155.811 -29.1028 0 0 0 255 0 0
184.025 -159.697 -29.8285 0 0 0 255 0 0
184.025 -163.582 -30.5543 0 0 0 255 0 0
184.025 -167.468 -31.28 0 0 0 255 0 0
184.025 -171.354 -32.0058 0 0 0 255 0 0
184.025 -175.239 -32.7315 0 0 0 255 0 0
184.025 -179.125 -33.4573 0 0 0 255 0 0
184.025 -183.01 -34.183 0 0 0 255 0 0
184.025 -186.896 -34.9088 0 0 0 255 0 0
184.025 -190.781 -35.6345 0 0 0 255 0 0
184.025 -194.667 -36.3603 0 0 0 255 0 0
184.025 -198.553 -37.0861 0 0 0 255 0 0
184.025 -202.438 -37.8118 0 0 0 255 0 0
184.025 -206.324 -38.5376 0 0 0 255 0 0
184.025 -210.209 -39.2633 0 0 0 255 0 0
184.025 -214.095 -39.9891 0 0 0 255 0 0
184.025 -217.98 -40.7148 0 0 0 255 0 0
184.025 -221.866 -41.4406 0 0 0 255 0 0
184.025 -225.751 -42.1663 0 0 0 255 0 0
184.025 -229.637 -42.8921 0 0 0 255 0 0
188.016 -0.388557 -0.0725754 0 0 0 255 0 0
188.016 -4.27412 -0.79833 0 0 0 255 0 0
188.016 -8.15969 -1.52408 0 0 0 255 0 0
188.016 -12.0453 -2.24984 0 0 0 255 0 0
188.016 -15.9308 -2.97559 0 0 0 255 0 0
188.016 -19.8164 -3.70135 0 0 0 255 0 0
188.016 -23.702 -4.4271 0 0 0 255 0 0
188.016 -27.5875 -5.15286 0 0 0 255 0 0
188.016 -31.4731 -5.87861 0 0 0 255 0 0
188.016 -35.3587 -6.60437 0 0 0 255 0 0
188.016 -39.2442 -7.33012 0 0 0 255 0 0
188.016 -43.1298 -8.05587 0 0 0 255 0 0
188.016 -47.0154 -8.78163 0 0 0 255 0 0
188.016 -50.9009 -9.50738 0 0 0 255 0 0
188.016 -54.7865 -10.2331 0 0 0 255 0 0
188.016 -58.6721 -10.9589 0 0 0 255 0 0
188.016 -62.5576 -11.6846 0 0 0 255 0 0
188.016 -66.4432 -12.4104 0 0 0 255 0 0
188.016 -70.3288 -13.1362 0 0 0 255 0 0
188.016 -74.2143 -13.8619 0 0 0 255 0 0
188.016 -78.0999 -14.5877 0 0 0 255 0 0
188.016 -81.9855 -15.3134 0 0 0 255 0 0
188.016 -85.8711 -16.0392 0 0 0 255 0 0
188.016 -89.7566 -16.7649 0 0 0 255 0 0
188.016 -93.6422 -17.4907 0 0 0 255 0 0
188.016 -97.5278 -18.2164 0 0 0 255 0 0
188.016 -101.413 -18.9422 0 0 0 255 0 0
188.016 -105.299 -19.6679 0 0 0 255 0 0
188.016 -109.184 -20.3937 0 0 0 255 0 0
188.016 -113.07 -21.1195 0 0 0 255 0 0
188.016 -116.956 -21.8452 0 0 0 255 0 0
188.016 -120.841 -22.571 0 0 0 255 0 0
188.016 -124.727 -23.2967 0 0 0 255 0 0
188.016 -128.612 -24.0225 0 0 0 255 0 0
188.016 -132.498 -24.7482 0 0 0 255 0 0
188.016 -136.383 -25.474 0 0 0 255 0 0
188.016 -140.269 -26.1997 0 0 0 255 0 0
188.016 -144.155 -26.9255 0 0 0 255 0 0
188.016 -148.04 -27.6512 0 0 0 255 0 0
188.016 -151.926 -28.377 0 0 0 255 0 0
188.016 -155.811 -29.1028 0 0 0 255 0 0
188.016 -159.697 -29.8285 0 0 0 255 0 0
188.016 -163.582 -30.5543 0 0 0 255 0 0
188.016 -167.468 -31.28 0 0 0 255 0 0
188.016 -171.354 -32.0058 0 0 0 255 0 0
188.016 -175.239 -32.7315 0 0 0 255 0 0
188.016 -179.125 -33.4573 0 0 0 255 0 0
188.016 -183.01 -34.183 0 0 0 255 0 0
188.016 -186.896 -34.9088 0 0 0 255 0 0
188.016 -190.781 -35.6345 0 0 0 255 0 0
188.016 -194.667 -36.3603 0 0 0 255 0 0
188.016 -198.553 -37.0861 0 0 0 255 0 0
188.016 -202.438 -37.8118 0 0 0 255 0 0
188.016 -206.324 -38.5376 0 0 0 255 0 0
188.016 -210.209 -39.2633 0 0 0 255 0 0
188.016 -214.095 -39.9891 0 0 0 255 0 0
188.016 -217.98 -40.7148 0 0 0 255 0 0
188.016 -221.866 -41.4406 0 0 0 255 0 0
188.016 -225.751 -42.1663 0 0 0 255 0 0
188.016 -229.637 -42.8921 0 0 0 255 0 0
192.008 -0.388557 -0.0725754 0 0 0 255 0 0
192.008 -4.27412 -0.79833 0 0 0 255 0 0
192.008 -8.15969 -1.52408 0 0 0 255 0 0
192.008 -12.0453 -2.24984 0 0 0 255 0 0
192.008 -15.9308 -2.97559 0 0 0 255 0 0
192.008 -19.8164 -3.70135 0 0 0 255 0 0
192.008 -23.702 -4.4271 0 0 0 255 0 0
192.008 -27.5875 -5.15286 0 0 0 255 0 0
192.008 -31.4731 -5.87861 0 0 0 255 0 0
192.008 -35.3587 -6.60437 0 0 0 255 0 0
192.008 -39.2442 -7.33012 0 0 0 255 0 0
192.008 -43.1298 -8.05587 0 0 0 255 0 0
192.008 -47.0154 -8.78163 0 0 0 255 0 0
192.008 -50.9009 -9.50738 0 0 0 255 0 0
192.008 -54.7865 -10.2331 0 0 0 255 0 0
192.008 -58.6721 -10.9589 0 0 0 255 0 0
192.008 -62.5576 -11.6846 0 0 0 255 0 0
192.008 -66.4432 -12.4104 0 0 0 255 0 0
192.008 -70.3288 -13.1362 0 0 0 255 0 0
192.008 -74.2143 -13.8619 0 0 0 255 0 0
192.008 -78.0999 -14.5877 0 0 0 255 0 0
192.008 -81.9855 -15.3134 0 0 0 255 0 0
192.008 -85.8711 -16.0392 0 0 0 255 0 0
192.008 -89.7566 -16.7649 0 0 0 255 0 0
192.008 -93.6422 -17.4907 0 0 0 255 0 0
192.008 -97.5278 -18.2164 0 0 0 255 0 0
192.008 -101.413 -18.9422 0 0 0 255 0 0
192.008 -105.299 -19.6679 0 0 0 255 0 0
192.008 -109.184 -20.3937 0 0 0 255 0 0
192.008 -113.07 -21.1195 0 0 0 255 0 0
192.008 -116.956 -21.8452 0 0 0 255 0 0
192.008 -120.841 -22.571 0 0 0 255 0 0
192.008 -124.727 -23.2967 0 0 0 255 0 0
192.008 -128.612 -24.0225 0 0 0 255 0 0
192.008 -132.498 -24.7482 0 0 0 255 0 0
192.008 -136.383 -25.474 0 0 0 255 0 0
192.008 -140.269 -26.1997 0 0 0 255 0 0
192.008 -144.155 -26.9255 0 0 0 255 0 0
192.008 -148.04 -27.6512 0 0 0 255 0 0
192.008 -151.926 -28.377 0 0 0 255 0 0
192.008 -155.811 -29.1028 0 0 0 255 0 0
192.008 -159.697 -29.8285 0 0 0 255 0 0
192.008 -163.582 -30.5543 0 0 0 255 0 0
192.008 -167.468 -31.28 0 0 0 255 0 0
192.008 -171.354 -32.0058 0 0 0 255 0 0
192.008 -175.239 -32.7315 0 0 0 255 0 0
192.008 -179.125 -33.4573 0 0 0 255 0 0
192.008 -183.01 -34.183 0 0 0 255 0 0
192.008 -186.896 -34.9088 0 0 0 255 0 0
192.008 -190.781 -35.6345 0 0 0 255 0 0
192.008 -194.667 -36.3603 0 0 0 255 0 0
192.008 -198.553 -37.0861 0 0 0 255 0 0
192.008 -202.438 -37.8118 0 0 0 255 0 0
192.008 -206.324 -38.5376 0 0 0 255 0 0
192.008 -210.209 -39.2633 0 0 0 255 0 0
192.008 -214.095 -39.9891 0 0 0 255 0 0
192.008 -217.98 -40.7148 0 0 0 255 0 0
192.008 -221.866 -41.4406 0 0 0 255 0 0
192.008 -225.751 -42.1663 0 0 0 255 0 0
192.008 -229.637 -42.8921 0 0 0 255 0 0
196 -0.388557 -0.0725754 0 0 0 255 0 0
196 -4.27412 -0.79833 0 0 0 255 0 0
196 -8.15969 -1.52408 0 0 0 255 0 0
196 -12.0453 -2.24984 0 0 0 255 0 0
196 -15.9308 -2.97559 0 0 0 255 0 0
196 -19.8164 -3.70135 0 0 0 255 0 0
196 -23.702 -4.4271 0 0 0 255 0 0
196 -27.5875 -5.15286 0 0 0 255 0 0
196 -31.4731 -5.87861 0 0 0 255 0 0
196 -35.3587 -6.60437 0 0 0 255 0 0
196 -39.2442 -7.33012 0 0 0 255 0 0
196 -43.1298 -8.05587 0 0 0 255 0 0
196 -47.0154 -8.78163 0 0 0 255 0 0
196 -50.9009 -9.50738 0 0 0 255 0 0
196 -54.7865 -10.2331 0 0 0 255 0 0
196 -58.6721 -10.9589 0 0 0 255 0 0
196 -62.5576 -11.6846 0 0 0 255 0 0
196 -66.4432 -12.4104 0 0 0 255 0 0
196 -70.3288 -13.1362 0 0 0 255 0 0
196 -74.2143 -13.8619 0 0 0 255 0 0
196 -78.0999 -14.5877 0 0 0 255 0 0
196 -81.9855 -15.3134 0 0 0 255 0 0
196 -85.8711 -16.0392 0 0 0 255 0 0
196 -89.7566 -16.7649 0 0 0 255 0 0
196 -93.6422 -17.4907 0 0 0 255 0 0
196 -97.5278 -18.2164 0 0 0 255 0 0
196 -101.413 -18.9422 0 0 0 255 0 0
196 -105.299 -19.6679 0 0 0 255 0 0
196 -109.184 -20.3937 0 0 0 255 0 0
196 -113.07 -21.1195 0 0 0 255 0 0
196 -116.956 -21.8452 0 0 0 255 0 0
196 -120.841 -22.571 0 0 0 255 0 0
196 -124.727 -23.2967 0 0 0 255 0 0
196 -128.612 -24.0225 0 0 0 255 0 0
196 -132.498 -24.7482 0 0 0 255 0 0
196 -136.383 -25.474 0 0 0 255 0 0
196 -140.269 -26.1997 0 0 0 255 0 0
196 -144.155 -26.9255 0 0 0 255 0 0
196 -148.04 -27.6512 0 0 0 255 0 0
196 -151.926 -28.377 0 0 0 255 0 0
196 -155.811 -29.1028 0 0 0 255 0 0
196 -159.697 -29.8285 0 0 0 255 0 0
196 -163.582 -30.5543 0 0 0 255 0 0
196 -167.468 -31.28 0 0 0 255 0 0
196 -171.354 -32.0058 0 0 0 255 0 0
196 -175.239 -32.7315 0 0 0 255 0 0
196 -179.125 -33.4573 0 0 0 255 0 0
196 -183.01 -34.183 0 0 0 255 0 0
196 -186.896 -34.9088 0 0 0 255 0 0
196 -190.781 -35.6345 0 0 0 255 0 0
196 -194.667 -36.3603 0 0 0 255 0 0
196 -198.553 -37.0861 0 0 0 255 0 0
196 -202.438 -37.8118 0 0 0 255 0 0
196 -206.324 -38.5376 0 0 0 255 0 0
196 -210.209 -39.2633 0 0 0 255 0 0
196 -214.095 -39.9891 0 0 0 255 0 0
196 -217.98 -40.7148 0 0 0 255 0 0
196 -221.866 -41.4406 0 0 0 255 0 0
196 -225.751 -42.1663 0 0 0 255 0 0
196 -229.637 -42.8921 0 0 0 255 0 0
199.992 -0.388557 -0.0725754 0 0 0 255 0 0
199.992 -4.27412 -0.79833 0 0 0 255 0 0
199.992 -8.15969 -1.52408 0 0 0 255 0 0
199.992 -12.0453 -2.24984 0 0 0 255 0 0
199.992 -15.9308 -2.97559 0 0 0 255 0 0
199.992 -19.8164 -3.70135 0 0 0 255 0 0
199.992 -23.702 -4.4271 0 0 0 255 0 0
199.992 -27.5875 -5.15286 0 0 0 255 0 0
199.992 -31.4731 -5.87861 0 0 0 255 0 0
199.992 -35.3587 -6.60437 0 0 0 255 0 0
199.992 -39.2442 -7.33012 0 0 0 255 0 0
199.992 -43.1298 -8.05587 0 0 0 255 0 0
199.992 -47.0154 -8.78163 0 0 0 255 0 0
199.992 -50.9009 -9.50738 0 0 0 255 0 0
199.992 -54.7865 -10.2331 0 0 0 255 0 0
199.992 -58.6721 -10.9589 0 0 0 255 0 0
199.992 -62.5576 -11.6846 0 0 0 255 0 0
199.992 -66.4432 -12.4104 0 0 0 255 0 0
199.992 -70.3288 -13.1362 0 0 0 255 0 0
199.992 -74.2143 -13.8619 0 0 0 255 0 0
199.992 -78.0999 -14.5877 0 0 0 255 0 0
199.992 -81.9855 -15.3134 0 0 0 255 0 0
199.992 -85.8711 -16.0392 0 0 0 255 0 0
199.992 -89.7566 -16.7649 0 0 0 255 0 0
199.992 -93.6422 -17.4907 0 0 0 255 0 0
199.992 -97.5278 -18.2164 0 0 0 255 0 0
199.992 -101.413 -18.9422 0 0 0 255 0 0
199.992 -105.299 -19.6679 0 0 0 255 0 0
199.992 -109.184 -20.3937 0 0 0 255 0 0
199.992 -113.07 -21.1195 0 0 0 255 0 0
199.992 -116.956 -21.8452 0 0 0 255 0 0
199.992 -120.841 -22.571 0 0 0 255 0 0
199.992 -124.727 -23.2967 0 0 0 255 0 0
199.992 -128.612 -24.0225 0 0 0 255 0 0
199.992 -132.498 -24.7482 0 0 0 255 0 0
199.992 -136.383 -25.474 0 0 0 255 0 0
199.992 -140.269 -26.1997 0 0 0 255 0 0
199.992 -144.155 -26.9255 0 0 0 255 0 0
199.992 -148.04 -27.6512 0 0 0 255 0 0
199.992 -151.926 -28.377 0 0 0 255 0 0
199.992 -155.811 -29.1028 0 0 0 255 0 0
199.992 -159.697 -29.8285 0 0 0 255 0 0
199.992 -163.582 -30.5543 0 0 0 255 0 0
199.992 -167.468 -31.28 0 0 0 255 0 0
199.992 -171.354 -32.0058 0 0 0 255 0 0
199.992 -175.239 -32.7315 0 0 0 255 0 0
199.992 -179.125 -33.4573 0 0 0 255 0 0
199.992 -183.01 -34.183 0 0 0 255 0 0
199.992 -186.896 -34.9088 0 0 0 255 0 0
199.992 -190.781 -35.6345 0 0 0 255 0 0
199.992 -194.667 -36.3603 0 0 0 255 0 0
199.992 -198.553 -37.0861 0 0 0 255 0 0
199.992 -202.438 -37.8118 0 0 0 255 0 0
199.992 -206.324 -38.5376 0 0 0 255 0 0
199.992 -210.209 -39.2633 0 0 0 255 0 0
199.992 -214.095 -39.9891 0 0 0 255 0 0
199.992 -217.98 -40.7148 0 0 0 255 0 0
199.992 -221.866 -41.4406 0 0 0 255 0 0
199.992 -225.751 -42.1663 0 0 0 255 0 0
199.992 -229.637 -42.8921 0 0 0 255 0 0
203.984 -0.388557 -0.0725754 0 0 0 255 0 0
203.984 -4.27412 -0.79833 0 0 0 255 0 0
203.984 -8.15969 -1.52408 0 0 0 255 0 0
203.984 -12.0453 -2.24984 0 0 0 255 0 0
203.984 -15.9308 -2.97559 0 0 0 255 0 0
203.984 -19.8164 -3.70135 0 0 0 255 0 0
203.984 -23.702 -4.4271 0 0 0 255 0 0
203.984 -27.5875 -5.15286 0 0 0 255 0 0
203.984 -31.4731 -5.87861 0 0 0 255 0 0
203.984 -35.3587 -6.60437 0 0 0 255 0 0
203.984 -39.2442 -7.33012 0 0 0 255 0 0
203.984 -43.1298 -8.05587 0 0 0 255 0 0
203.984 -47.0154 -8.78163 0 0 0 255 0 0
203.984 -50.9009 -9.50738 0 0 0 255 0 0
203.984 -54.7865 -10.2331 0 0 0 255 0 0
203.984 -58.6721 -10.9589 0 0 0 255 0 0
203.984 -62.5576 -11.6846 0 0 0 255 0 0
203.984 -66.4432 -12.4104 0 0 0 255 0 0
203.984 -70.3288 -13.1362 0 0 0 255 0 0
203.984 -74.2143 -13.8619 0 0 0 255 0 0
203.984 -78.0999 -14.5877 0 0 0 255 0 0
203.984 -81.9855 -15.3134 0 0 0 255 0 0
203.984 -85.8711 -16.0392 0 0 0 255 0 0
203.984 -89.7566 -16.7649 0 0 0 255 0 0
203.984 -93.6422 -17.4907 0 0 0 255 0 0
203.984 -97.5278 -18.2164 0 0 0 255 0 0
203.984 -101.413 -18.9422 0 0 0 255 0 0
203.984 -105.299 -19.6679 0 0 0 255 0 0
203.984 -109.184 -20.3937 0 0 0 255 0 0
203.984 -113.07 -21.1195 0 0 0 255 0 0
203.984 -116.956 -21.8452 0 0 0 255 0 0
203.984 -120.841 -22.571 0 0 0 255 0 0
203.984 -124.727 -23.2967 0 0 0 255 0 0
203.984 -128.612 -24.0225 0 0 0 255 0 0
203.984 -132.498 -24.7482 0 0 0 255 0 0
203.984 -136.383 -25.474 0 0 0 255 0 0
203.984 -140.269 -26.1997 0 0 0 255 0 0
203.984 -144.155 -26.9255 0 0 0 255 0 0
203.984 -148.04 -27.6512 0 0 0 255 0 0
203.984 -151.926 -28.377 0 0 0 255 0 0
203.984 -155.811 -29.1028 0 0 0 255 0 0
203.984 -159.697 -29.8285 0 0 0 255 0 0
203.984 -163.582 -30.5543 0 0 0 255 0 0
203.984 -167.468 -31.28 0 0 0 255 0 0
203.984 -171.354 -32.0058 0 0 0 255 0 0
203.984 -175.239 -32.7315 0 0 0 255 0 0
203.984 -179.125 -33.4573 0 0 0 255 0 0
203.984 -183.01 -34.183 0 0 0 255 0 0
203.984 -186.896 -34.9088 0 0 0 255 0 0
203.984 -190.781 -35.6345 0 0 0 255 0 0
203.984 -194.667 -36.3603 0 0 0 255 0 0
203.984 -198.553 -37.0861 0 0 0 255 0 0
203.984 -202.438 -37.8118 0 0 0 255 0 0
203.984 -206.324 -38.5376 0 0 0 255 0 0
203.984 -210.209 -39.2633 0 0 0 255 0 0
203.984 -214.095 -39.9891 0 0 0 255 0 0
203.984 -217.98 -40.7148 0 0 0 255 0 0
203.984 -221.866 -41.4406 0 0 0 255 0 0
203.984 -225.751 -42.1663 0 0 0 255 0 0
203.984 -229.637 -42.8921 0 0 0 255 0 0
207.976 -0.388557 -0.0725754 0 0 0 255 0 0
207.976 -4.27412 -0.79833 0 0 0 255 0 0
207.976 -8.15969 -1.52408 0 0 0 255 0 0
207.976 -12.0453 -2.24984 0 0 0 255 0 0
207.976 -15.9308 -2.97559 0 0 0 255 0 0
207.976 -19.8164 -3.70135 0 0 0 255 0 0
207.976 -23.702 -4.4271 0 0 0 255 0 0
207.976 -27.5875 -5.15286 0 0 0 255 0 0
207.976 -31.4731 -5.87861 0 0 0 255 0 0
207.976 -35.3587 -6.60437 0 0 0 255 0 0
207.976 -39.2442 -7.33012 0 0 0 255 0 0
207.976 -43.1298 -8.05587 0 0 0 255 0 0
207.976 -47.0154 -8.78163 0 0 0 255 0 0
207.976 -50.9009 -9.50738 0 0 0 255 0 0
207.976 -54.7865 -10.2331 0 0 0 255 0 0
207.976 -58.6721 -10.9589 0 0 0 255 0 0
207.976 -62.5576 -11.6846 0 0 0 255 0 0
207.976 -66.4432 -12.4104 0 0 0 255 0 0
207.976 -70.3288 -13.1362 0 0 0 255 0 0
207.976 -74.2143 -13.8619 0 0 0 255 0 0
207.976 -78.0999 -14.5877 0 0 0 255 0 0
207.976 -81.9855 -15.3134 0 0 0 255 0 0
207.976 -85.8711 -16.0392 0 0 0 255 0 0
207.976 -89.7566 -16.7649 0 0 0 255 0 0
207.976 -93.6422 -17.4907 0 0 0 255 0 0
207.976 -97.5278 -18.2164 0 0 0 255 0 0
207.976 -101.413 -18.9422 0 0 0 255 0 0
207.976 -105.299 -19.6679 0 0 0 255 0 0
207.976 -109.184 -20.3937 0 0 0 255 0 0
207.976 -113.07 -21.1195 0 0 0 255 0 0
207.976 -116.956 -21.8452 0 0 0 255 0 0
207.976 -120.841 -22.571 0 0 0 255 0 0
207.976 -124.727 -23.2967 0 0 0 255 0 0
207.976 -128.612 -24.0225 0 0 0 255 0 0
207.976 -132.498 -24.7482 0 0 0 255 0 0
207.976 -136.383 -25.474 0 0 0 255 0 0
207.976 -140.269 -26.1997 0 0 0 255 0 0
207.976 -144.155 -26.9255 0 0 0 255 0 0
207.976 -148.04 -27.6512 0 0 0 255 0 0
207.976 -151.926 -28.377 0 0 0 255 0 0
207.976 -155.811 -29.1028 0 0 0 255 0 0
207.976 -159.697 -29.8285 0 0 0 255 0 0
207.976 -163.582 -30.5543 0 0 0 255 0 0
207.976 -167.468 -31.28 0 0 0 255 0 0
207.976 -171.354 -32.0058 0 0 0 255 0 0
207.976 -175.239 -32.7315 0 0 0 255 0 0
207.976 -179.125 -33.4573 0 0 0 255 0 0
207.976 -183.01 -34.183 0 0 0 255 0 0
207.976 -186.896 -34.9088 0 0 0 255 0 0
207.976 -190.781 -35.6345 0 0 0 255 0 0
207.976 -194.667 -36.3603 0 0 0 255 0 0
207.976 -198.553 -37.0861 0 0 0 255 0 0
207.976 -202.438 -37.8118 0 0 0 255 0 0
207.976 -206.324 -38.5376 0 0 0 255 0 0
207.976 -210.209 -39.2633 0 0 0 255 0 0
207.976 -214.095 -39.9891 0 0 0 255 0 0
207.976 -217.98 -40.7148 0 0 0 255 0 0
207.976 -221.866 -41.4406 0 0 0 255 0 0
207.976 -225.751 -42.1663 0 0 0 255 0 0
207.976 -229.637 -42.8921 0 0 0 255 0 0
211.968 -0.388557 -0.0725754 0 0 0 255 0 0
211.968 -4.27412 -0.79833 0 0 0 255 0 0
211.968 -8.15969 -1.52408 0 0 0 255 0 0
211.968 -12.0453 -2.24984 0 0 0 255 0 0
211.968 -15.9308 -2.97559 0 0 0 255 0 0
211.968 -19.8164 -3.70135 0 0 0 255 0 0
211.968 -23.702 -4.4271 0 0 0 255 0 0
211.968 -27.5875 -5.15286 0 0 0 255 0 0
211.968 -31.4731 -5.87861 0 0 0 255 0 0
211.968 -35.3587 -6.60437 0 0 0 255 0 0
211.968 -39.2442 -7.33012 0 0 0 255 0 0
211.968 -43.1298 -8.05587 0 0 0 255 0 0
211.968 -47.0154 -8.78163 0 0 0 255 0 0
211.968 -50.9009 -9.50738 0 0 0 255 0 0
211.968 -54.7865 -10.2331 0 0 0 255 0 0
211.968 -58.6721 -10.9589 0 0 0 255 0 0
211.968 -62.5576 -11.6846 0 0 0 255 0 0
211.968 -66.4432 -12.4104 0 0 0 255 0 0
211.968 -70.3288 -13.1362 0 0 0 255 0 0
211.968 -74.2143 -13.8619 0 0 0 255 0 0
211.968 -78.0999 -14.5877 0 0 0 255 0 0
211.968 -81.9855 -15.3134 0 0 0 255 0 0
211.968 -85.8711 -16.0392 0 0 0 255 0 0
211.968 -89.7566 -16.7649 0 0 0 255 0 0
211.968 -93.6422 -17.4907 0 0 0 255 0 0
211.968 -97.5278 -18.2164 0 0 0 255 0 0
211.968 -101.413 -18.9422 0 0 0 255 0 0
211.968 -105.299 -19.6679 0 0 0 255 0 0
211.968 -109.184 -20.3937 0 0 0 255 0 0
211.968 -113.07 -21.1195 0 0 0 255 0 0
211.968 -116.956 -21.8452 0 0 0 255 0 0
211.968 -120.841 -22.571 0 0 0 255 0 0
211.968 -124.727 -23.2967 0 0 0 255 0 0
211.968 -128.612 -24.0225 0 0 0 255 0 0
211.968 -132.498 -24.7482 0 0 0 255 0 0
211.968 -136.383 -25.474 0 0 0 255 0 0
211.968 -140.269 -26.1997 0 0 0 255 0 0
211.968 -144.155 -26.9255 0 0 0 255 0 0
211.968 -148.04 -27.6512 0 0 0 255 0 0
211.968 -151.926 -28.377 0 0 0 255 0 0
211.968 -155.811 -29.1028 0 0 0 255 0 0
211.968 -159.697 -29.8285 0 0 0 255 0 0
211.968 -163.582 -30.5543 0 0 0 255 0 0
211.968 -167.468 -31.28 0 0 0 255 0 0
211.968 -171.354 -32.0058 0 0 0 255 0 0
211.968 -175.239 -32.7315 0 0 0 255 0 0
211.968 -179.125 -33.4573 0 0 0 255 0 0
211.968 -183.01 -34.183 0 0 0 255 0 0
211.968 -186.896 -34.9088 0 0 0 255 0 0
211.968 -190.781 -35.6345 0 0 0 255 0 0
211.968 -194.667 -36.3603 0 0 0 255 0 0
211.968 -198.553 -37.0861 0 0 0 255 0 0
211.968 -202.438 -37.8118 0 0 0 255 0 0
211.968 -206.324 -38.5376 0 0 0 255 0 0
211.968 -210.209 -39.2633 0 0 0 255 0 0
211.968 -214.095 -39.9891 0 0 0 255 0 0
211.968 -217.98 -40.7148 0 0 0 255 0 0
211.968 -221.866 -41.4406 0 0 0 255 0 0
211.968 -225.751 -42.1663 0 0 0 255 0 0
211.968 -229.637 -42.8921 0 0 0 255 0 0
215.959 -0.388557 -0.0725754 0 0 0 255 0 0
215.959 -4.27412 -0.79833 0 0 0 255 0 0
215.959 -8.15969 -1.52408 0 0 0 255 0 0
215.959 -12.0453 -2.24984 0 0 0 255 0 0
215.959 -15.9308 -2.97559 0 0 0 255 0 0
215.959 -19.8164 -3.70135 0 0 0 255 0 0
215.959 -23.702 -4.4271 0 0 0 255 0 0
215.959 -27.5875 -5.15286 0 0 0 255 0 0
215.959 -31.4731 -5.87861 0 0 0 255 0 0
215.959 -35.3587 -6.60437 0 0 0 255 0 0
215.959 -39.2442 -7.33012 0 0 0 255 0 0
215.959 -43.1298 -8.05587 0 0 0 255 0 0
215.959 -47.0154 -8.78163 0 0 0 255 0 0
215.959 -50.9009 -9.50738 0 0 0 255 0 0
215.959 -54.7865 -10.2331 0 0 0 255 0 0
215.959 -58.6721 -10.9589 0 0 0 255 0 0
215.959 -62.5576 -11.6846 0 0 0 255 0 0
215.959 -66.4432 -12.4104 0 0 0 255 0 0
215.959 -70.3288 -13.1362 0 0 0 255 0 0
215.959 -74.2143 -13.8619 0 0 0 255 0 0
215.959 -78.0999 -14.5877 0 0 0 255 0 0
215.959 -81.9855 -15.3134 0 0 0 255 0 0
215.959 -85.8711 -16.0392 0 0 0 255 0 0
215.959 -89.7566 -16.7649 0 0 0 255 0 0
215.959 -93.6422 -17.4907 0 0 0 255 0 0
215.959 -97.5278 -18.2164 0 0 0 255 0 0
215.959 -101.413 -18.9422 0 0 0 255 0 0
215.959 -105.299 -19.6679 0 0 0 255 0 0
215.959 -109.184 -20.3937 0 0 0 255 0 0
215.959 -113.07 -21.1195 0 0 0 255 0 0
215.959 -116.956 -21.8452 0 0 0 255 0 0
215.959 -120.841 -22.571 0 0 0 255 0 0
215.959 -124.727 -23.2967 0 0 0 255 0 0
215.959 -128.612 -24.0225 0 0 0 255 0 0
215.959 -132.498 -24.7482 0 0 0 255 0 0
215.959 -136.383 -25.474 0 0 0 255 0 0
215.959 -140.269 -26.1997 0 0 0 255 0 0
215.959 -144.155 -26.9255 0 0 0 255 0 0
215.959 -148.04 -27.6512 0 0 0 255 0 0
215.959 -151.926 -28.377 0 0 0 255 0 0
215.959 -155.811 -29.1028 0 0 0 255 0 0
215.959 -159.697 -29.8285 0 0 0 255 0 0
215.959 -163.582 -30.5543 0 0 0 255 0 0
215.959 -167.468 -31.28 0 0 0 255 0 0
215.959 -171.354 -32.0058 0 0 0 255 0 0
215.959 -175.239 -32.7315 0 0 0 255 0 0
215.959 -179.125 -33.4573 0 0 0 255 0 0
215.959 -183.01 -34.183 0 0 0 255 0 0
215.959 -186.896 -34.9088 0 0 0 255 0 0
215.959 -190.781 -35.6345 0 0 0 255 0 0
215.959 -194.667 -36.3603 0 0 0 255 0 0
215.959 -198.553 -37.0861 0 0 0 255 0 0
215.959 -202.438 -37.8118 0 0 0 255 0 0
215.959 -206.324 -38.5376 0 0 0 255 0 0
215.959 -210.209 -39.2633 0 0 0 255 0 0
215.959 -214.095 -39.9891 0 0 0 255 0 0
215.959 -217.98 -40.7148 0 0 0 255 0 0
215.959 -221.866 -41.4406 0 0 0 255 0 0
215.959 -225.751 -42.1663 0 0 0 255 0 0
215.959 -229.637 -42.8921 0 0 0 255 0 0
219.951 -0.388557 -0.0725754 0 0 0 255 0 0
219.951 -4.27412 -0.79833 0 0 0 255 0 0
219.951 -8.15969 -1.52408 0 0 0 255 0 0
219.951 -12.0453 -2.24984 0 0 0 255 0 0
219.951 -15.9308 -2.97559 0 0 0 255 0 0
219.951 -19.8164 -3.70135 0 0 0 255 0 0
219.951 -23.702 -4.4271 0 0 0 255 0 0
219.951 -27.5875 -5.15286 0 0 0 255 0 0
219.951 -31.4731 -5.87861 0 0 0 255 0 0
219.951 -35.3587 -6.60437 0 0 0 255 0 0
219.951 -39.2442 -7.33012 0 0 0 255 0 0
219.951 -43.1298 -8.05587 0 0 0 255 0 0
219.951 -47.0154 -8.78163 0 0 0 255 0 0
219.951 -50.9009 -9.50738 0 0 0 255 0 0
219.951 -54.7865 -10.2331 0 0 0 255 0 0
219.951 -58.6721 -10.9589 0 0 0 255 0 0
219.951 -62.5576 -11.6846 0 0 0 255 0 0
219.951 -66.4432 -12.4104 0 0 0 255 0 0
219.951 -70.3288 -13.1362 0 0 0 255 0 0
219.951 -74.2143 -13.8619 0 0 0 255 0 0
219.951 -78.0999 -14.5877 0 0 0 255 0 0
219.951 -81.9855 -15.3134 0 0 0 255 0 0
219.951 -85.8711 -16.0392 0 0 0 255 0 0
219.951 -89.7566 -16.7649 0 0 0 255 0 0
219.951 -93.6422 -17.4907 0 0 0 255 0 0
219.951 -97.5278 -18.2164 0 0 0 255 0 0
219.951 -101.413 -18.9422 0 0 0 255 0 0
219.951 -105.299 -19.6679 0 0 0 255 0 0
219.951 -109.184 -20.3937 0 0 0 255 0 0
219.951 -113.07 -21.1195 0 0 0 255 0 0
219.951 -116.956 -21.8452 0 0 0 255 0 0
219.951 -120.841 -22.571 0 0 0 255 0 0
219.951 -124.727 -23.2967 0 0 0 255 0 0
219.951 -128.612 -24.0225 0 0 0 255 0 0
219.951 -132.498 -24.7482 0 0 0 255 0 0
219.951 -136.383 -25.474 0 0 0 255 0 0
219.951 -140.269 -26.1997 0 0 0 255 0 0
219.951 -144.155 -26.9255 0 0 0 255 0 0
219.951 -148.04 -27.6512 0 0 0 255 0 0
219.951 -151.926 -28.377 0 0 0 255 0 0
219.951 -155.811 -29.1028 0 0 0 255 0 0
219.951 -159.697 -29.8285 0 0 0 255 0 0
219.951 -163.582 -30.5543 0 0 0 255 0 0
219.951 -167.468 -31.28 0 0 0 255 0 0
219.951 -171.354 -32.0058 0 0 0 255 0 0
219.951 -175.239 -32.7315 0 0 0 255 0 0
219.951 -179.125 -33.4573 0 0 0 255 0 0
219.951 -183.01 -34.183 0 0 0 255 0 0
219.951 -186.896 -34.9088 0 0 0 255 0 0
219.951 -190.781 -35.6345 0 0 0 255 0 0
219.951 -194.667 -36.3603 0 0 0 255 0 0
219.951 -198.553 -37.0861 0 0 0 255 0 0
219.951 -202.438 -37.8118 0 0 0 255 0 0
219.951 -206.324 -38.5376 0 0 0 255 0 0
219.951 -210.209 -39.2633 0 0 0 255 0 0
219.951 -214.095 -39.9891 0 0 0 255 0 0
219.951 -217.98 -40.7148 0 0 0 255 0 0
219.951 -221.866 -41.4406 0 0 0 255 0 0
219.951 -225.751 -42.1663 0 0 0 255 0 0
219.951 -229.637 -42.8921 0 0 0 255 0 0
223.943 -0.388557 -0.0725754 0 0 0 255 0 0
223.943 -4.27412 -0.79833 0 0 0 255 0 0
223.943 -8.15969 -1.52408 0 0 0 255 0 0
223.943 -12.0453 -2.24984 0 0 0 255 0 0
223.943 -15.9308 -2.97559 0 0 0 255 0 0
223.943 -19.8164 -3.70135 0 0 0 255 0 0
223.943 -23.702 -4.4271 0 0 0 255 0 0
223.943 -27.5875 -5.15286 0 0 0 255 0 0
223.943 -31.4731 -5.87861 0 0 0 255 0 0
223.943 -35.3587 -6.60437 0 0 0 255 0 0
223.943 -39.2442 -7.33012 0 0 0 255 0 0
223.943 -43.1298 -8.05587 0 0 0 255 0 0
223.943 -47.0154 -8.78163 0 0 0 255 0 0
223.943 -50.9009 -9.50738 0 0 0 255 0 0
223.943 -54.7865 -10.2331 0 0 0 255 0 0
223.943 -58.6721 -10.9589 0 0 0 255 0 0
223.943 -62.5576 -11.6846 0 0 0 255 0 0
223.943 -66.4432 -12.4104 0 0 0 255 0 0
223.943 -70.3288 -13.1362 0 0 0 255 0 0
223.943 -74.2143 -13.8619 0 0 0 255 0 0
223.943 -78.0999 -14.5877 0 0 0 255 0 0
223.943 -81.9855 -15.3134 0 0 0 255 0 0
223.943 -85.8711 -16.0392 0 0 0 255 0 0
223.943 -89.7566 -16.7649 0 0 0 255 0 0
223.943 -93.6422 -17.4907 0 0 0 255 0 0
223.943 -97.5278 -18.2164 0 0 0 255 0 0
223.943 -101.413 -18.9422 0 0 0 255 0 0
223.943 -105.299 -19.6679 0 0 0 255 0 0
223.943 -109.184 -20.3937 0 0 0 255 0 0
223.943 -113.07 -21.1195 0 0 0 255 0 0
223.943 -116.956 -21.8452 0 0 0 255 0 0
223.943 -120.841 -22.571 0 0 0 255 0 0
223.943 -124.727 -23.2967 0 0 0 255 0 0
223.943 -128.612 -24.0225 0 0 0 255 0 0
223.943 -132.498 -24.7482 0 0 0 255 0 0
223.943 -136.383 -25.474 0 0 0 255 0 0
223.943 -140.269 -26.1997 0 0 0 255 0 0
223.943 -144.155 -26.9255 0 0 0 255 0 0
223.943 -148.04 -27.6512 0 0 0 255 0 0
223.943 -151.926 -28.377 0 0 0 255 0 0
223.943 -155.811 -29.1028 0 0 0 255 0 0
223.943 -159.697 -29.8285 0 0 0 255 0 0
223.943 -163.582 -30.5543 0 0 0 255 0 0
223.943 -167.468 -31.28 0 0 0 255 0 0
223.943 -171.354 -32.0058 0 0 0 255 0 0
223.943 -175.239 -32.7315 0 0 0 255 0 0
223.943 -179.125 -33.4573 0 0 0 255 0 0
223.943 -183.01 -34.183 0 0 0 255 0 0
223.943 -186.896 -34.9088 0 0 0 255 0 0
223.943 -190.781 -35.6345 0 0 0 255 0 0
223.943 -194.667 -36.3603 0 0 0 255 0 0
223.943 -198.553 -37.0861 0 0 0 255 0 0
223.943 -202.438 -37.8118 0 0 0 255 0 0
223.943 -206.324 -38.5376 0 0 0 255 0 0
223.943 -210.209 -39.2633 0 0 0 255 0 0
223.943 -214.095 -39.9891 0 0 0 255 0 0
223.943 -217.98 -40.7148 0 0 0 255 0 0
223.943 -221.866 -41.4406 0 0 0 255 0 0
223.943 -225.751 -42.1663 0 0 0 255 0 0
223.943 -229.637 -42.8921 0 0 0 255 0 0
227.935 -0.388557 -0.0725754 0 0 0 255 0 0
227.935 -4.27412 -0.79833 0 0 0 255 0 0
227.935 -8.15969 -1.52408 0 0 0 255 0 0
227.935 -12.0453 -2.24984 0 0 0 255 0 0
227.935 -15.9308 -2.97559 0 0 0 255 0 0
227.935 -19.8164 -3.70135 0 0 0 255 0 0
227.935 -23.702 -4.4271 0 0 0 255 0 0
227.935 -27.5875 -5.15286 0 0 0 255 0 0
227.935 -31.4731 -5.87861 0 0 0 255 0 0
227.935 -35.3587 -6.60437 0 0 0 255 0 0
227.935 -39.2442 -7.33012 0 0 0 255 0 0
227.935 -43.1298 -8.05587 0 0 0 255 0 0
227.935 -47.0154 -8.78163 0 0 0 255 0 0
227.935 -50.9009 -9.50738 0 0 0 255 0 0
227.935 -54.7865 -10.2331 0 0 0 255 0 0
227.935 -58.6721 -10.9589 0 0 0 255 0 0
227.935 -62.5576 -11.6846 0 0 0 255 0 0
227.935 -66.4432 -12.4104 0 0 0 255 0 0
227.935 -70.3288 -13.1362 0 0 0 255 0 0
227.935 -74.2143 -13.8619 0 0 0 255 0 0
227.935 -78.0999 -14.5877 0 0 0 255 0 0
227.935 -81.9855 -15.3134 0 0 0 255 0 0
227.935 -85.8711 -16.0392 0 0 0 255 0 0
227.935 -89.7566 -16.7649 0 0 0 255 0 0
227.935 -93.6422 -17.4907 0 0 0 255 0 0
227.935 -97.5278 -18.2164 0 0 0 255 0 0
227.935 -101.413 -18.9422 0 0 0 255 0 0
227.935 -105.299 -19.6679 0 0 0 255 0 0
227.935 -109.184 -20.3937 0 0 0 255 0 0
227.935 -113.07 -21.1195 0 0 0 255 0 0
227.935 -116.956 -21.8452 0 0 0 255 0 0
227.935 -120.841 -22.571 0 0 0 255 0 0
227.935 -124.727 -23.2967 0 0 0 255 0 0
227.935 -128.612 -24.0225 0 0 0 255 0 0
227.935 -132.498 -24.7482 0 0 0 255 0 0
227.935 -136.383 -25.474 0 0 0 255 0 0
227.935 -140.269 -26.1997 0 0 0 255 0 0
227.935 -144.155 -26.9255 0 0 0 255 0 0
227.935 -148.04 -27.6512 0 0 0 255 0 0
227.935 -151.926 -28.377 0 0 0 255 0 0
227.935 -155.811 -29.1028 0 0 0 255 0 0
227.935 -159.697 -29.8285 0 0 0 255 0 0
227.935 -163.582 -30.5543 0 0 0 255 0 0
227.935 -167.468 -31.28 0 0 0 255 0 0
227.935 -171.354 -32.0058 0 0 0 255 0 0
227.935 -175.239 -32.7315 0 0 0 255 0 0
227.935 -179.125 -33.4573 0 0 0 255 0 0
227.935 -183.01 -34.183 0 0 0 255 0 0
227.935 -186.896 -34.9088 0 0 0 255 0 0
227.935 -190.781 -35.6345 0 0 0 255 0 0
227.935 -194.667 -36.3603 0 0 0 255 0 0
227.935 -198.553 -37.0861 0 0 0 255 0 0
227.935 -202.438 -37.8118 0 0 0 255 0 0
227.935 -206.324 -38.5376 0 0 0 255 0 0
227.935 -210.209 -39.2633 0 0 0 255 0 0
227.935 -214.095 -39.9891 0 0 0 255 0 0
227.935 -217.98 -40.7148 0 0 0 255 0 0
227.935 -221.866 -41.4406 0 0 0 255 0 0
227.935 -225.751 -42.1663 0 0 0 255 0 0
227.935 -229.637 -42.8921 0 0 0 255 0 0
231.927 -0.388557 -0.0725754 0 0 0 255 0 0
231.927 -4.27412 -0.79833 0 0 0 255 0 0
231.927 -8.15969 -1.52408 0 0 0 255 0 0
231.927 -12.0453 -2.24984 0 0 0 255 0 0
231.927 -15.9308 -2.97559 0 0 0 255 0 0
231.927 -19.8164 -3.70135 0 0 0 255 0 0
231.927 -23.702 -4.4271 0 0 0 255 0 0
231.927 -27.5875 -5.15286 0 0 0 255 0 0
231.927 -31.4731 -5.87861 0 0 0 255 0 0
231.927 -35.3587 -6.60437 0 0 0 255 0 0
231.927 -39.2442 -7.33012 0 0 0 255 0 0
231.927 -43.1298 -8.05587 0 0 0 255 0 0
231.927 -47.0154 -8.78163 0 0 0 255 0 0
231.927 -50.9009 -9.50738 0 0 0 255 0 0
231.927 -54.7865 -10.2331 0 0 0 255 0 0
231.927 -58.6721 -10.9589 0 0 0 255 0 0
231.927 -62.5576 -11.6846 0 0 0 255 0 0
231.927 -66.4432 -12.4104 0 0 0 255 0 0
231.927 -70.3288 -13.1362 0 0 0 255 0 0
231.927 -74.2143 -13.8619 0 0 0 255 0 0
231.927 -78.0999 -14.5877 0 0 0 255 0 0
231.927 -81.9855 -15.3134 0 0 0 255 0 0
231.927 -85.8711 -16.0392 0 0 0 255 0 0
231.927 -89.7566 -16.7649 0 0 0 255 0 0
231.927 -93.6422 -17.4907 0 0 0 255 0 0
231.927 -97.5278 -18.2164 0 0 0 255 0 0
231.927 -101.413 -18.9422 0 0 0 255 0 0
231.927 -105.299 -19.6679 0 0 0 255 0 0
231.927 -109.184 -20.3937 0 0 0 255 0 0
231.927 -113.07 -21.1195 0 0 0 255 0 0
231.927 -116.956 -21.8452 0 0 0 255 0 0
231.927 -120.841 -22.571 0 0 0 255 0 0
231.927 -124.727 -23.2967 0 0 0 255 0 0
231.927 -128.612 -24.0225 0 0 0 255 0 0
231.927 -132.498 -24.7482 0 0 0 255 0 0
231.927 -136.383 -25.474 0 0 0 255 0 0
231.927 -140.269 -26.1997 0 0 0 255 0 0
231.927 -144.155 -26.9255 0 0 0 255 0 0
231.927 -148.04 -27.6512 0 0 0 255 0 0
231.927 -151.926 -28.377 0 0 0 255 0 0
231.927 -155.811 -29.1028 0 0 0 255 0 0
231.927 -159.697 -29.8285 0 0 0 255 0 0
231.927 -163.582 -30.5543 0 0 0 255 0 0
231.927 -167.468 -31.28 0 0 0 255 0 0
231.927 -171.354 -32.0058 0 0 0 255 0 0
231.927 -175.239 -32.7315 0 0 0 255 0 0
231.927 -179.125 -33.4573 0 0 0 255 0 0
231.927 -183.01 -34.183 0 0 0 255 0 0
231.927 -186.896 -34.9088 0 0 0 255 0 0
