ply
format ascii 1.0
element vertex 400
property float x
property float y
property float z
property float nx
property float ny
property float nz
property uchar red
property uchar green
property uchar blue
end_header
-0.0305524 -0.392101 -1.38625 0 0 0 255 0 0
-0.0993126 -0.363075 -1.31694 0 0 0 255 0 0
-0.168073 -0.334048 -1.24763 0 0 0 255 0 0
-0.236833 -0.305021 -1.17832 0 0 0 255 0 0
-0.305594 -0.275994 -1.109 0 0 0 255 0 0
-0.374354 -0.246967 -1.03969 0 0 0 255 0 0
-0.443114 -0.21794 -0.970378 0 0 0 255 0 0
-0.511875 -0.188914 -0.901066 0 0 0 255 0 0
-0.580635 -0.159887 -0.831753 0 0 0 255 0 0
-0.649395 -0.13086 -0.76244 0 0 0 255 0 0
-0.718155 -0.101833 -0.693127 0 0 0 255 0 0
-0.786916 -0.0728064 -0.623815 0 0 0 255 0 0
-0.855676 -0.0437796 -0.554502 0 0 0 255 0 0
-0.924436 -0.0147527 -0.485189 0 0 0 255 0 0
-0.993197 0.0142741 -0.415876 0 0 0 255 0 0
-1.06196 0.043301 -0.346564 0 0 0 255 0 0
-1.13072 0.0723277 -0.277251 0 0 0 255 0 0
-1.19948 0.101355 -0.207938 0 0 0 255 0 0
-1.26824 0.130381 -0.138625 0 0 0 255 0 0
-1.337 0.159408 -0.0693126 0 0 0 255 0 0
0.0412632 -0.381918 -1.31694 0 0 0 255 0 0
-0.0274971 -0.352891 -1.24763 0 0 0 255 0 0
-0.0962574 -0.323864 -1.17832 0 0 0 255 0 0
-0.165018 -0.294838 -1.109 0 0 0 255 0 0
-0.233778 -0.265811 -1.03969 0 0 0 255 0 0
-0.302538 -0.236784 -0.970378 0 0 0 255 0 0
-0.371299 -0.207757 -0.901065 0 0 0 255 0 0
-0.440059 -0.17873 -0.831753 0 0 0 255 0 0
-0.508819 -0.149703 -0.76244 0 0 0 255 0 0
-0.57758 -0.120677 -0.693127 0 0 0 255 0 0
-0.64634 -0.0916498 -0.623815 0 0 0 255 0 0
-0.7151 -0.062623 -0.554502 0 0 0 255 0 0
-0.78386 -0.0335962 -0.485189 0 0 0 255 0 0
-0.852621 -0.00456944 -0.415876 0 0 0 255 0 0
-0.921381 0.0244574 -0.346564 0 0 0 255 0 0
-0.990141 0.0534843 -0.277251 0 0 0 255 0 0
-1.0589 0.0825111 -0.207938 0 0 0 255 0 0
-1.12766 0.111538 -0.138625 0 0 0 255 0 0
-1.19642 0.140565 -0.0693127 0 0 0 255 0 0
-1.26518 0.169592 1.19209e-07 0 0 0 255 0 0
0.113079 -0.371735 -1.24763 0 0 0 255 0 0
0.0443184 -0.342708 -1.17832 0 0 0 255 0 0
-0.0244418 -0.313681 -1.109 0 0 0 255 0 0
-0.0932022 -0.284654 -1.03969 0 0 0 255 0 0
-0.161962 -0.255627 -0.970378 0 0 0 255 0 0
-0.230723 -0.226601 -0.901065 0 0 0 255 0 0
-0.299483 -0.197574 -0.831753 0 0 0 255 0 0
-0.368243 -0.168547 -0.76244 0 0 0 255 0 0
-0.437004 -0.13952 -0.693127 0 0 0 255 0 0
-0.505764 -0.110493 -0.623815 0 0 0 255 0 0
-0.574524 -0.0814665 -0.554502 0 0 0 255 0 0
-0.643284 -0.0524397 -0.485189 0 0 0 255 0 0
-0.712045 -0.0234128 -0.415876 0 0 0 255 0 0
-0.780805 0.00561394 -0.346564 0 0 0 255 0 0
-0.849565 0.0346408 -0.277251 0 0 0 255 0 0
-0.918326 0.0636676 -0.207938 0 0 0 255 0 0
-0.987086 0.0926944 -0.138625 0 0 0 255 0 0
-1.05585 0.121721 -0.0693126 0 0 0 255 0 0
-1.12461 0.150748 1.19209e-07 0 0 0 255 0 0
-1.19337 0.179775 0.0693129 0 0 0 255 0 0
0.184894 -0.361551 -1.17832 0 0 0 255 0 0
0.116134 -0.332525 -1.109 0 0 0 255 0 0
0.0473737 -0.303498 -1.03969 0 0 0 255 0 0
-0.0213866 -0.274471 -0.970378 0 0 0 255 0 0
-0.0901469 -0.245444 -0.901066 0 0 0 255 0 0
-0.158907 -0.216417 -0.831753 0 0 0 255 0 0
-0.227668 -0.18739 -0.76244 0 0 0 255 0 0
-0.296428 -0.158364 -0.693127 0 0 0 255 0 0
-0.365188 -0.129337 -0.623815 0 0 0 255 0 0
-0.433948 -0.10031 -0.554502 0 0 0 255 0 0
-0.502709 -0.0712832 -0.485189 0 0 0 255 0 0
-0.571469 -0.0422564 -0.415876 0 0 0 255 0 0
-0.640229 -0.0132295 -0.346564 0 0 0 255 0 0
-0.70899 0.0157973 -0.277251 0 0 0 255 0 0
-0.77775 0.0448241 -0.207938 0 0 0 255 0 0
-0.84651 0.073851 -0.138625 0 0 0 255 0 0
-0.915271 0.102878 -0.0693126 0 0 0 255 0 0
-0.984031 0.131905 1.49012e-07 0 0 0 255 0 0
-1.05279 0.160931 0.0693128 0 0 0 255 0 0
-1.12155 0.189958 0.138626 0 0 0 255 0 0
0.25671 -0.351368 -1.109 0 0 0 255 0 0
0.18795 -0.322341 -1.03969 0 0 0 255 0 0
0.119189 -0.293314 -0.970378 0 0 0 255 0 0
0.0504289 -0.264288 -0.901066 0 0 0 255 0 0
-0.0183314 -0.235261 -0.831753 0 0 0 255 0 0
-0.0870917 -0.206234 -0.76244 0 0 0 255 0 0
-0.155852 -0.177207 -0.693127 0 0 0 255 0 0
-0.224612 -0.14818 -0.623815 0 0 0 255 0 0
-0.293373 -0.119153 -0.554502 0 0 0 255 0 0
-0.362133 -0.0901267 -0.485189 0 0 0 255 0 0
-0.430893 -0.0610999 -0.415876 0 0 0 255 0 0
-0.499653 -0.032073 -0.346564 0 0 0 255 0 0
-0.568414 -0.00304621 -0.277251 0 0 0 255 0 0
-0.637174 0.0259806 -0.207938 0 0 0 255 0 0
-0.705934 0.0550074 -0.138625 0 0 0 255 0 0
-0.774695 0.0840342 -0.0693126 0 0 0 255 0 0
-0.843455 0.113061 1.19209e-07 0 0 0 255 0 0
-0.912215 0.142088 0.0693129 0 0 0 255 0 0
-0.980976 0.171115 0.138626 0 0 0 255 0 0
-1.04974 0.200142 0.207938 0 0 0 255 0 0
0.328525 -0.341185 -1.03969 0 0 0 255 0 0
0.259765 -0.312158 -0.970378 0 0 0 255 0 0
0.191005 -0.283131 -0.901066 0 0 0 255 0 0
0.122244 -0.254104 -0.831753 0 0 0 255 0 0
0.0534842 -0.225077 -0.76244 0 0 0 255 0 0
-0.0152762 -0.196051 -0.693127 0 0 0 255 0 0
-0.0840365 -0.167024 -0.623815 0 0 0 255 0 0
-0.152797 -0.137997 -0.554502 0 0 0 255 0 0
-0.221557 -0.10897 -0.485189 0 0 0 255 0 0
-0.290317 -0.0799434 -0.415876 0 0 0 255 0 0
-0.359078 -0.0509166 -0.346564 0 0 0 255 0 0
-0.427838 -0.0218897 -0.277251 0 0 0 255 0 0
-0.496598 0.0071371 -0.207938 0 0 0 255 0 0
-0.565359 0.0361639 -0.138625 0 0 0 255 0 0
-0.634119 0.0651907 -0.0693126 0 0 0 255 0 0
-0.702879 0.0942175 1.19209e-07 0 0 0 255 0 0
-0.771639 0.123244 0.0693129 0 0 0 255 0 0
-0.8404 0.152271 0.138626 0 0 0 255 0 0
-0.90916 0.181298 0.207938 0 0 0 255 0 0
-0.97792 0.210325 0.277251 0 0 0 255 0 0
0.400341 -0.331001 -0.970378 0 0 0 255 0 0
0.331581 -0.301975 -0.901066 0 0 0 255 0 0
0.26282 -0.272948 -0.831753 0 0 0 255 0 0
0.19406 -0.243921 -0.76244 0 0 0 255 0 0
0.1253 -0.214894 -0.693127 0 0 0 255 0 0
0.0565394 -0.185867 -0.623814 0 0 0 255 0 0
-0.0122209 -0.156841 -0.554502 0 0 0 255 0 0
-0.0809812 -0.127814 -0.485189 0 0 0 255 0 0
-0.149742 -0.0987869 -0.415876 0 0 0 255 0 0
-0.218502 -0.0697601 -0.346564 0 0 0 255 0 0
-0.287262 -0.0407332 -0.277251 0 0 0 255 0 0
-0.356022 -0.0117064 -0.207938 0 0 0 255 0 0
-0.424783 0.0173204 -0.138625 0 0 0 255 0 0
-0.493543 0.0463472 -0.0693126 0 0 0 255 0 0
-0.562303 0.0753741 8.9407e-08 0 0 0 255 0 0
-0.631064 0.104401 0.0693128 0 0 0 255 0 0
-0.699824 0.133428 0.138626 0 0 0 255 0 0
-0.768584 0.162455 0.207938 0 0 0 255 0 0
-0.837345 0.191481 0.277251 0 0 0 255 0 0
-0.906105 0.220508 0.346564 0 0 0 255 0 0
0.472156 -0.320818 -0.901066 0 0 0 255 0 0
0.403396 -0.291791 -0.831753 0 0 0 255 0 0
0.334636 -0.262764 -0.76244 0 0 0 255 0 0
0.265875 -0.233738 -0.693127 0 0 0 255 0 0
0.197115 -0.204711 -0.623815 0 0 0 255 0 0
0.128355 -0.175684 -0.554502 0 0 0 255 0 0
0.0595946 -0.146657 -0.485189 0 0 0 255 0 0
-0.00916567 -0.11763 -0.415876 0 0 0 255 0 0
-0.077926 -0.0886035 -0.346564 0 0 0 255 0 0
-0.146686 -0.0595767 -0.277251 0 0 0 255 0 0
-0.215447 -0.0305499 -0.207938 0 0 0 255 0 0
-0.284207 -0.00152311 -0.138625 0 0 0 255 0 0
-0.352967 0.0275037 -0.0693126 0 0 0 255 0 0
-0.421728 0.0565305 1.04308e-07 0 0 0 255 0 0
-0.490488 0.0855573 0.0693128 0 0 0 255 0 0
-0.559248 0.114584 0.138626 0 0 0 255 0 0
-0.628008 0.143611 0.207938 0 0 0 255 0 0
-0.696769 0.172638 0.277251 0 0 0 255 0 0
-0.765529 0.201665 0.346564 0 0 0 255 0 0
-0.834289 0.230691 0.415877 0 0 0 255 0 0
0.543972 -0.310635 -0.831753 0 0 0 255 0 0
0.475212 -0.281608 -0.76244 0 0 0 255 0 0
0.406451 -0.252581 -0.693127 0 0 0 255 0 0
0.337691 -0.223554 -0.623815 0 0 0 255 0 0
0.268931 -0.194528 -0.554502 0 0 0 255 0 0
0.20017 -0.165501 -0.485189 0 0 0 255 0 0
0.13141 -0.136474 -0.415876 0 0 0 255 0 0
0.0626498 -0.107447 -0.346564 0 0 0 255 0 0
-0.00611047 -0.0784202 -0.277251 0 0 0 255 0 0
-0.0748708 -0.0493934 -0.207938 0 0 0 255 0 0
-0.143631 -0.0203666 -0.138625 0 0 0 255 0 0
-0.212391 0.00866023 -0.0693126 0 0 0 255 0 0
-0.281152 0.037687 1.04308e-07 0 0 0 255 0 0
-0.349912 0.0667138 0.0693128 0 0 0 255 0 0
-0.418672 0.0957407 0.138626 0 0 0 255 0 0
-0.487433 0.124768 0.207938 0 0 0 255 0 0
-0.556193 0.153794 0.277251 0 0 0 255 0 0
-0.624953 0.182821 0.346564 0 0 0 255 0 0
-0.693713 0.211848 0.415877 0 0 0 255 0 0
-0.762474 0.240875 0.485189 0 0 0 255 0 0
0.615788 -0.300452 -0.76244 0 0 0 255 0 0
0.547027 -0.271425 -0.693127 0 0 0 255 0 0
0.478267 -0.242398 -0.623815 0 0 0 255 0 0
0.409507 -0.213371 -0.554502 0 0 0 255 0 0
0.340746 -0.184344 -0.485189 0 0 0 255 0 0
0.271986 -0.155317 -0.415876 0 0 0 255 0 0
0.203226 -0.126291 -0.346564 0 0 0 255 0 0
0.134465 -0.0972637 -0.277251 0 0 0 255 0 0
0.0657051 -0.0682369 -0.207938 0 0 0 255 0 0
-0.00305525 -0.0392101 -0.138625 0 0 0 255 0 0
-0.0718155 -0.0101833 -0.0693126 0 0 0 255 0 0
-0.140576 0.0188435 1.08033e-07 0 0 0 255 0 0
-0.209336 0.0478703 0.0693129 0 0 0 255 0 0
-0.278096 0.0768972 0.138626 0 0 0 255 0 0
-0.346857 0.105924 0.207938 0 0 0 255 0 0
-0.415617 0.134951 0.277251 0 0 0 255 0 0
-0.484377 0.163978 0.346564 0 0 0 255 0 0
-0.553138 0.193004 0.415877 0 0 0 255 0 0
-0.621898 0.222031 0.485189 0 0 0 255 0 0
-0.690658 0.251058 0.554502 0 0 0 255 0 0
0.687603 -0.290268 -0.693127 0 0 0 255 0 0
0.618843 -0.261241 -0.623815 0 0 0 255 0 0
0.550082 -0.232215 -0.554502 0 0 0 255 0 0
0.481322 -0.203188 -0.485189 0 0 0 255 0 0
0.412562 -0.174161 -0.415876 0 0 0 255 0 0
0.343801 -0.145134 -0.346564 0 0 0 255 0 0
0.275041 -0.116107 -0.277251 0 0 0 255 0 0
0.206281 -0.0870804 -0.207938 0 0 0 255 0 0
0.137521 -0.0580536 -0.138625 0 0 0 255 0 0
0.0687603 -0.0290268 -0.0693126 0 0 0 255 0 0
6.53017e-09 4.11405e-08 9.86526e-08 0 0 0 255 0 0
-0.0687603 0.0290268 0.0693128 0 0 0 255 0 0
-0.137521 0.0580537 0.138626 0 0 0 255 0 0
-0.206281 0.0870805 0.207938 0 0 0 255 0 0
-0.275041 0.116107 0.277251 0 0 0 255 0 0
-0.343801 0.145134 0.346564 0 0 0 255 0 0
-0.412562 0.174161 0.415877 0 0 0 255 0 0
-0.481322 0.203188 0.485189 0 0 0 255 0 0
-0.550082 0.232215 0.554502 0 0 0 255 0 0
-0.618843 0.261241 0.623815 0 0 0 255 0 0
0.759419 -0.280085 -0.623815 0 0 0 255 0 0
0.690658 -0.251058 -0.554502 0 0 0 255 0 0
0.621898 -0.222031 -0.485189 0 0 0 255 0 0
0.553138 -0.193004 -0.415876 0 0 0 255 0 0
0.484377 -0.163978 -0.346564 0 0 0 255 0 0
0.415617 -0.134951 -0.277251 0 0 0 255 0 0
0.346857 -0.105924 -0.207938 0 0 0 255 0 0
0.278096 -0.0768971 -0.138625 0 0 0 255 0 0
0.209336 -0.0478703 -0.0693126 0 0 0 255 0 0
0.140576 -0.0188435 1.04308e-07 0 0 0 255 0 0
0.0718155 0.0101833 0.0693128 0 0 0 255 0 0
0.00305522 0.0392102 0.138626 0 0 0 255 0 0
-0.0657051 0.068237 0.207938 0 0 0 255 0 0
-0.134465 0.0972638 0.277251 0 0 0 255 0 0
-0.203226 0.126291 0.346564 0 0 0 255 0 0
-0.271986 0.155317 0.415877 0 0 0 255 0 0
-0.340746 0.184344 0.485189 0 0 0 255 0 0
-0.409507 0.213371 0.554502 0 0 0 255 0 0
-0.478267 0.242398 0.623815 0 0 0 255 0 0
-0.547027 0.271425 0.693128 0 0 0 255 0 0
0.831234 -0.269902 -0.554502 0 0 0 255 0 0
0.762474 -0.240875 -0.485189 0 0 0 255 0 0
0.693714 -0.211848 -0.415876 0 0 0 255 0 0
0.624953 -0.182821 -0.346564 0 0 0 255 0 0
0.556193 -0.153794 -0.277251 0 0 0 255 0 0
0.487433 -0.124767 -0.207938 0 0 0 255 0 0
0.418672 -0.0957406 -0.138625 0 0 0 255 0 0
0.349912 -0.0667138 -0.0693126 0 0 0 255 0 0
0.281152 -0.037687 9.68575e-08 0 0 0 255 0 0
0.212391 -0.00866015 0.0693129 0 0 0 255 0 0
0.143631 0.0203667 0.138626 0 0 0 255 0 0
0.0748708 0.0493935 0.207938 0 0 0 255 0 0
0.00611048 0.0784203 0.277251 0 0 0 255 0 0
-0.0626498 0.107447 0.346564 0 0 0 255 0 0
-0.13141 0.136474 0.415877 0 0 0 255 0 0
-0.20017 0.165501 0.485189 0 0 0 255 0 0
-0.268931 0.194528 0.554502 0 0 0 255 0 0
-0.337691 0.223554 0.623815 0 0 0 255 0 0
-0.406451 0.252581 0.693128 0 0 0 255 0 0
-0.475212 0.281608 0.76244 0 0 0 255 0 0
0.90305 -0.259718 -0.485189 0 0 0 255 0 0
0.834289 -0.230691 -0.415876 0 0 0 255 0 0
0.765529 -0.201665 -0.346564 0 0 0 255 0 0
0.696769 -0.172638 -0.277251 0 0 0 255 0 0
0.628008 -0.143611 -0.207938 0 0 0 255 0 0
0.559248 -0.114584 -0.138625 0 0 0 255 0 0
0.490488 -0.0855573 -0.0693126 0 0 0 255 0 0
0.421728 -0.0565305 1.11759e-07 0 0 0 255 0 0
0.352967 -0.0275037 0.0693128 0 0 0 255 0 0
0.284207 0.00152316 0.138626 0 0 0 255 0 0
0.215447 0.03055 0.207938 0 0 0 255 0 0
0.146686 0.0595768 0.277251 0 0 0 255 0 0
0.077926 0.0886036 0.346564 0 0 0 255 0 0
0.00916572 0.11763 0.415877 0 0 0 255 0 0
-0.0595946 0.146657 0.485189 0 0 0 255 0 0
-0.128355 0.175684 0.554502 0 0 0 255 0 0
-0.197115 0.204711 0.623815 0 0 0 255 0 0
-0.265876 0.233738 0.693128 0 0 0 255 0 0
-0.334636 0.262765 0.76244 0 0 0 255 0 0
-0.403396 0.291791 0.831753 0 0 0 255 0 0
0.974865 -0.249535 -0.415876 0 0 0 255 0 0
0.906105 -0.220508 -0.346564 0 0 0 255 0 0
0.837345 -0.191481 -0.277251 0 0 0 255 0 0
0.768584 -0.162454 -0.207938 0 0 0 255 0 0
0.699824 -0.133428 -0.138625 0 0 0 255 0 0
0.631064 -0.104401 -0.0693126 0 0 0 255 0 0
0.562303 -0.075374 1.19209e-07 0 0 0 255 0 0
0.493543 -0.0463472 0.0693128 0 0 0 255 0 0
0.424783 -0.0173203 0.138626 0 0 0 255 0 0
0.356022 0.0117065 0.207938 0 0 0 255 0 0
0.287262 0.0407333 0.277251 0 0 0 255 0 0
0.218502 0.0697601 0.346564 0 0 0 255 0 0
0.149742 0.0987869 0.415877 0 0 0 255 0 0
0.0809812 0.127814 0.485189 0 0 0 255 0 0
0.0122209 0.156841 0.554502 0 0 0 255 0 0
-0.0565394 0.185867 0.623815 0 0 0 255 0 0
-0.1253 0.214894 0.693128 0 0 0 255 0 0
-0.19406 0.243921 0.76244 0 0 0 255 0 0
-0.26282 0.272948 0.831753 0 0 0 255 0 0
-0.331581 0.301975 0.901066 0 0 0 255 0 0
1.04668 -0.239352 -0.346564 0 0 0 255 0 0
0.97792 -0.210325 -0.277251 0 0 0 255 0 0
0.90916 -0.181298 -0.207938 0 0 0 255 0 0
0.8404 -0.152271 -0.138625 0 0 0 255 0 0
0.771639 -0.123244 -0.0693126 0 0 0 255 0 0
0.702879 -0.0942175 1.19209e-07 0 0 0 255 0 0
0.634119 -0.0651907 0.0693128 0 0 0 255 0 0
0.565359 -0.0361638 0.138626 0 0 0 255 0 0
0.496598 -0.00713702 0.207938 0 0 0 255 0 0
0.427838 0.0218898 0.277251 0 0 0 255 0 0
0.359078 0.0509166 0.346564 0 0 0 255 0 0
0.290317 0.0799434 0.415877 0 0 0 255 0 0
0.221557 0.10897 0.485189 0 0 0 255 0 0
0.152797 0.137997 0.554502 0 0 0 255 0 0
0.0840365 0.167024 0.623815 0 0 0 255 0 0
0.0152762 0.196051 0.693127 0 0 0 255 0 0
-0.0534841 0.225078 0.76244 0 0 0 255 0 0
-0.122244 0.254104 0.831753 0 0 0 255 0 0
-0.191005 0.283131 0.901066 0 0 0 255 0 0
-0.259765 0.312158 0.970378 0 0 0 255 0 0
1.1185 -0.229168 -0.277251 0 0 0 255 0 0
1.04974 -0.200141 -0.207938 0 0 0 255 0 0
0.980976 -0.171115 -0.138625 0 0 0 255 0 0
0.912215 -0.142088 -0.0693126 0 0 0 255 0 0
0.843455 -0.113061 1.3411e-07 0 0 0 255 0 0
0.774695 -0.0840342 0.0693129 0 0 0 255 0 0
0.705934 -0.0550073 0.138626 0 0 0 255 0 0
0.637174 -0.0259805 0.207938 0 0 0 255 0 0
0.568414 0.00304629 0.277251 0 0 0 255 0 0
0.499654 0.0320731 0.346564 0 0 0 255 0 0
0.430893 0.0611 0.415877 0 0 0 255 0 0
0.362133 0.0901268 0.485189 0 0 0 255 0 0
0.293373 0.119154 0.554502 0 0 0 255 0 0
0.224612 0.14818 0.623815 0 0 0 255 0 0
0.155852 0.177207 0.693128 0 0 0 255 0 0
0.0870917 0.206234 0.76244 0 0 0 255 0 0
0.0183314 0.235261 0.831753 0 0 0 255 0 0
-0.0504289 0.264288 0.901066 0 0 0 255 0 0
-0.119189 0.293315 0.970378 0 0 0 255 0 0
-0.18795 0.322341 1.03969 0 0 0 255 0 0
1.19031 -0.218985 -0.207938 0 0 0 255 0 0
1.12155 -0.189958 -0.138625 0 0 0 255 0 0
1.05279 -0.160931 -0.0693127 0 0 0 255 0 0
0.984031 -0.131904 8.9407e-08 0 0 0 255 0 0
0.915271 -0.102878 0.0693128 0 0 0 255 0 0
0.84651 -0.0738509 0.138626 0 0 0 255 0 0
0.77775 -0.044824 0.207938 0 0 0 255 0 0
0.70899 -0.0157972 0.277251 0 0 0 255 0 0
0.640229 0.0132296 0.346564 0 0 0 255 0 0
0.571469 0.0422564 0.415877 0 0 0 255 0 0
0.502709 0.0712833 0.485189 0 0 0 255 0 0
0.433949 0.10031 0.554502 0 0 0 255 0 0
0.365188 0.129337 0.623815 0 0 0 255 0 0
0.296428 0.158364 0.693128 0 0 0 255 0 0
0.227668 0.187391 0.76244 0 0 0 255 0 0
0.158907 0.216417 0.831753 0 0 0 255 0 0
0.090147 0.245444 0.901066 0 0 0 255 0 0
0.0213866 0.274471 0.970378 0 0 0 255 0 0
-0.0473737 0.303498 1.03969 0 0 0 255 0 0
-0.116134 0.332525 1.109 0 0 0 255 0 0
1.26213 -0.208802 -0.138625 0 0 0 255 0 0
1.19337 -0.179775 -0.0693126 0 0 0 255 0 0
1.12461 -0.150748 8.9407e-08 0 0 0 255 0 0
1.05585 -0.121721 0.0693129 0 0 0 255 0 0
0.987086 -0.0926943 0.138626 0 0 0 255 0 0
0.918326 -0.0636675 0.207938 0 0 0 255 0 0
0.849566 -0.0346407 0.277251 0 0 0 255 0 0
0.780805 -0.00561389 0.346564 0 0 0 255 0 0
0.712045 0.0234129 0.415877 0 0 0 255 0 0
0.643285 0.0524397 0.485189 0 0 0 255 0 0
0.574524 0.0814666 0.554502 0 0 0 255 0 0
0.505764 0.110493 0.623815 0 0 0 255 0 0
0.437004 0.13952 0.693128 0 0 0 255 0 0
0.368243 0.168547 0.76244 0 0 0 255 0 0
0.299483 0.197574 0.831753 0 0 0 255 0 0
0.230723 0.226601 0.901066 0 0 0 255 0 0
0.161963 0.255627 0.970379 0 0 0 255 0 0
0.0932022 0.284654 1.03969 0 0 0 255 0 0
0.0244419 0.313681 1.109 0 0 0 255 0 0
-0.0443185 0.342708 1.17832 0 0 0 255 0 0
1.33394 -0.198618 -0.0693127 0 0 0 255 0 0
1.26518 -0.169592 1.19209e-07 0 0 0 255 0 0
1.19642 -0.140565 0.0693129 0 0 0 255 0 0
1.12766 -0.111538 0.138626 0 0 0 255 0 0
1.0589 -0.082511 0.207938 0 0 0 255 0 0
0.990141 -0.0534842 0.277251 0 0 0 255 0 0
0.921381 -0.0244574 0.346564 0 0 0 255 0 0
0.852621 0.00456944 0.415877 0 0 0 255 0 0
0.783861 0.0335963 0.485189 0 0 0 255 0 0
0.7151 0.0626231 0.554502 0 0 0 255 0 0
0.64634 0.0916499 0.623815 0 0 0 255 0 0
0.57758 0.120677 0.693128 0 0 0 255 0 0
0.508819 0.149704 0.76244 0 0 0 255 0 0
0.440059 0.17873 0.831753 0 0 0 255 0 0
0.371299 0.207757 0.901066 0 0 0 255 0 0
0.302538 0.236784 0.970379 0 0 0 255 0 0
0.233778 0.265811 1.03969 0 0 0 255 0 0
0.165018 0.294838 1.109 0 0 0 255 0 0
0.0962574 0.323864 1.17832 0 0 0 255 0 0
0.0274971 0.352891 1.24763 0 0 0 255 0 0
