ply
format ascii 1.0
element vertex 400
property float x
property float y
property float z
property float nx
property float ny
property float nz
property uchar red
property uchar green
property uchar blue
end_header
-0.478713 1.82978 0.380912 0 0 0 255 0 0
-0.504415 1.74825 0.329036 0 0 0 255 0 0
-0.530117 1.66671 0.277161 0 0 0 255 0 0
-0.555819 1.58517 0.225285 0 0 0 255 0 0
-0.581521 1.50363 0.17341 0 0 0 255 0 0
-0.607224 1.4221 0.121534 0 0 0 255 0 0
-0.632926 1.34056 0.0696589 0 0 0 255 0 0
-0.658628 1.25902 0.0177834 0 0 0 255 0 0
-0.68433 1.17748 -0.0340921 0 0 0 255 0 0
-0.710032 1.09595 -0.0859675 0 0 0 255 0 0
-0.735734 1.01441 -0.137843 0 0 0 255 0 0
-0.761436 0.932873 -0.189719 0 0 0 255 0 0
-0.787138 0.851335 -0.241594 0 0 0 255 0 0
-0.81284 0.769798 -0.293469 0 0 0 255 0 0
-0.838543 0.688261 -0.345345 0 0 0 255 0 0
-0.864245 0.606723 -0.39722 0 0 0 255 0 0
-0.889947 0.525186 -0.449096 0 0 0 255 0 0
-0.915649 0.443649 -0.500971 0 0 0 255 0 0
-0.941351 0.362111 -0.552847 0 0 0 255 0 0
-0.967053 0.280574 -0.604722 0 0 0 255 0 0
-0.410996 1.77629 0.431439 0 0 0 255 0 0
-0.436698 1.69475 0.379564 0 0 0 255 0 0
-0.4624 1.61322 0.327688 0 0 0 255 0 0
-0.488103 1.53168 0.275813 0 0 0 255 0 0
-0.513805 1.45014 0.223937 0 0 0 255 0 0
-0.539507 1.3686 0.172062 0 0 0 255 0 0
-0.565209 1.28707 0.120186 0 0 0 255 0 0
-0.590911 1.20553 0.0683109 0 0 0 255 0 0
-0.616613 1.12399 0.0164355 0 0 0 255 0 0
-0.642315 1.04246 -0.03544 0 0 0 255 0 0
-0.668017 0.960918 -0.0873155 0 0 0 255 0 0
-0.693719 0.87938 -0.139191 0 0 0 255 0 0
-0.719422 0.797843 -0.191066 0 0 0 255 0 0
-0.745124 0.716306 -0.242942 0 0 0 255 0 0
-0.770826 0.634768 -0.294817 0 0 0 255 0 0
-0.796528 0.553231 -0.346693 0 0 0 255 0 0
-0.82223 0.471694 -0.398568 0 0 0 255 0 0
-0.847932 0.390156 -0.450444 0 0 0 255 0 0
-0.873634 0.308619 -0.502319 0 0 0 255 0 0
-0.899336 0.227082 -0.554195 0 0 0 255 0 0
-0.343279 1.7228 0.481967 0 0 0 255 0 0
-0.368982 1.64126 0.430091 0 0 0 255 0 0
-0.394684 1.55972 0.378216 0 0 0 255 0 0
-0.420386 1.47819 0.32634 0 0 0 255 0 0
-0.446088 1.39665 0.274465 0 0 0 255 0 0
-0.47179 1.31511 0.222589 0 0 0 255 0 0
-0.497492 1.23357 0.170714 0 0 0 255 0 0
-0.523194 1.15204 0.118839 0 0 0 255 0 0
-0.548896 1.0705 0.066963 0 0 0 255 0 0
-0.574598 0.988963 0.0150875 0 0 0 255 0 0
-0.6003 0.907426 -0.0367879 0 0 0 255 0 0
-0.626003 0.825888 -0.0886634 0 0 0 255 0 0
-0.651705 0.744351 -0.140539 0 0 0 255 0 0
-0.677407 0.662814 -0.192414 0 0 0 255 0 0
-0.703109 0.581276 -0.24429 0 0 0 255 0 0
-0.728811 0.499739 -0.296165 0 0 0 255 0 0
-0.754513 0.418202 -0.348041 0 0 0 255 0 0
-0.780215 0.336664 -0.399916 0 0 0 255 0 0
-0.805917 0.255127 -0.451792 0 0 0 255 0 0
-0.83162 0.17359 -0.503667 0 0 0 255 0 0
-0.275563 1.66931 0.532494 0 0 0 255 0 0
-0.301265 1.58777 0.480619 0 0 0 255 0 0
-0.326967 1.50623 0.428743 0 0 0 255 0 0
-0.352669 1.42469 0.376868 0 0 0 255 0 0
-0.378371 1.34316 0.324993 0 0 0 255 0 0
-0.404073 1.26162 0.273117 0 0 0 255 0 0
-0.429775 1.18008 0.221242 0 0 0 255 0 0
-0.455477 1.09855 0.169366 0 0 0 255 0 0
-0.48118 1.01701 0.117491 0 0 0 255 0 0
-0.506882 0.935471 0.0656151 0 0 0 255 0 0
-0.532584 0.853934 0.0137396 0 0 0 255 0 0
-0.558286 0.772396 -0.0381359 0 0 0 255 0 0
-0.583988 0.690859 -0.0900113 0 0 0 255 0 0
-0.60969 0.609322 -0.141887 0 0 0 255 0 0
-0.635392 0.527784 -0.193762 0 0 0 255 0 0
-0.661094 0.446247 -0.245638 0 0 0 255 0 0
-0.686796 0.36471 -0.297513 0 0 0 255 0 0
-0.712499 0.283172 -0.349389 0 0 0 255 0 0
-0.738201 0.201635 -0.401264 0 0 0 255 0 0
-0.763903 0.120097 -0.45314 0 0 0 255 0 0
-0.207846 1.61581 0.583022 0 0 0 255 0 0
-0.233548 1.53428 0.531147 0 0 0 255 0 0
-0.25925 1.45274 0.479271 0 0 0 255 0 0
-0.284952 1.3712 0.427396 0 0 0 255 0 0
-0.310654 1.28967 0.37552 0 0 0 255 0 0
-0.336356 1.20813 0.323645 0 0 0 255 0 0
-0.362059 1.12659 0.271769 0 0 0 255 0 0
-0.387761 1.04505 0.219894 0 0 0 255 0 0
-0.413463 0.963516 0.168018 0 0 0 255 0 0
-0.439165 0.881979 0.116143 0 0 0 255 0 0
-0.464867 0.800441 0.0642672 0 0 0 255 0 0
-0.490569 0.718904 0.0123917 0 0 0 255 0 0
-0.516271 0.637367 -0.0394838 0 0 0 255 0 0
-0.541973 0.555829 -0.0913593 0 0 0 255 0 0
-0.567675 0.474292 -0.143235 0 0 0 255 0 0
-0.593378 0.392755 -0.19511 0 0 0 255 0 0
-0.61908 0.311217 -0.246986 0 0 0 255 0 0
-0.644782 0.22968 -0.298861 0 0 0 255 0 0
-0.670484 0.148143 -0.350737 0 0 0 255 0 0
-0.696186 0.0666054 -0.402612 0 0 0 255 0 0
-0.140129 1.56232 0.63355 0 0 0 255 0 0
-0.165831 1.48079 0.581674 0 0 0 255 0 0
-0.191533 1.39925 0.529799 0 0 0 255 0 0
-0.217235 1.31771 0.477923 0 0 0 255 0 0
-0.242938 1.23617 0.426048 0 0 0 255 0 0
-0.26864 1.15464 0.374172 0 0 0 255 0 0
-0.294342 1.0731 0.322297 0 0 0 255 0 0
-0.320044 0.991561 0.270421 0 0 0 255 0 0
-0.345746 0.910024 0.218546 0 0 0 255 0 0
-0.371448 0.828487 0.16667 0 0 0 255 0 0
-0.39715 0.746949 0.114795 0 0 0 255 0 0
-0.422852 0.665412 0.0629192 0 0 0 255 0 0
-0.448554 0.583875 0.0110438 0 0 0 255 0 0
-0.474257 0.502337 -0.0408317 0 0 0 255 0 0
-0.499959 0.4208 -0.0927072 0 0 0 255 0 0
-0.525661 0.339263 -0.144583 0 0 0 255 0 0
-0.551363 0.257725 -0.196458 0 0 0 255 0 0
-0.577065 0.176188 -0.248334 0 0 0 255 0 0
-0.602767 0.0946506 -0.300209 0 0 0 255 0 0
-0.628469 0.0131132 -0.352085 0 0 0 255 0 0
-0.0724123 1.50883 0.684077 0 0 0 255 0 0
-0.0981144 1.42729 0.632202 0 0 0 255 0 0
-0.123817 1.34576 0.580326 0 0 0 255 0 0
-0.149519 1.26422 0.528451 0 0 0 255 0 0
-0.175221 1.18268 0.476575 0 0 0 255 0 0
-0.200923 1.10114 0.4247 0 0 0 255 0 0
-0.226625 1.01961 0.372824 0 0 0 255 0 0
-0.252327 0.938069 0.320949 0 0 0 255 0 0
-0.278029 0.856532 0.269073 0 0 0 255 0 0
-0.303731 0.774994 0.217198 0 0 0 255 0 0
-0.329433 0.693457 0.165322 0 0 0 255 0 0
-0.355136 0.61192 0.113447 0 0 0 255 0 0
-0.380838 0.530383 0.0615713 0 0 0 255 0 0
-0.40654 0.448845 0.0096958 0 0 0 255 0 0
-0.432242 0.367308 -0.0421797 0 0 0 255 0 0
-0.457944 0.285771 -0.0940551 0 0 0 255 0 0
-0.483646 0.204233 -0.145931 0 0 0 255 0 0
-0.509348 0.122696 -0.197806 0 0 0 255 0 0
-0.53505 0.0411585 -0.249682 0 0 0 255 0 0
-0.560752 -0.0403788 -0.301557 0 0 0 255 0 0
-0.00469549 1.45534 0.734605 0 0 0 255 0 0
-0.0303976 1.3738 0.682729 0 0 0 255 0 0
-0.0560997 1.29226 0.630854 0 0 0 255 0 0
-0.0818018 1.21073 0.578978 0 0 0 255 0 0
-0.107504 1.12919 0.527103 0 0 0 255 0 0
-0.133206 1.04765 0.475227 0 0 0 255 0 0
-0.158908 0.966114 0.423352 0 0 0 255 0 0
-0.18461 0.884577 0.371476 0 0 0 255 0 0
-0.210312 0.80304 0.319601 0 0 0 255 0 0
-0.236015 0.721502 0.267725 0 0 0 255 0 0
-0.261717 0.639965 0.21585 0 0 0 255 0 0
-0.287419 0.558428 0.163974 0 0 0 255 0 0
-0.313121 0.47689 0.112099 0 0 0 255 0 0
-0.338823 0.395353 0.0602233 0 0 0 255 0 0
-0.364525 0.313816 0.00834787 0 0 0 255 0 0
-0.390227 0.232278 -0.0435276 0 0 0 255 0 0
-0.415929 0.150741 -0.0954031 0 0 0 255 0 0
-0.441631 0.0692038 -0.147279 0 0 0 255 0 0
-0.467334 -0.0123336 -0.199154 0 0 0 255 0 0
-0.493036 -0.093871 -0.25103 0 0 0 255 0 0
0.0630213 1.40185 0.785132 0 0 0 255 0 0
0.0373191 1.32031 0.733257 0 0 0 255 0 0
0.011617 1.23877 0.681381 0 0 0 255 0 0
-0.0140851 1.15723 0.629506 0 0 0 255 0 0
-0.0397872 1.0757 0.57763 0 0 0 255 0 0
-0.0654893 0.99416 0.525755 0 0 0 255 0 0
-0.0911914 0.912622 0.473879 0 0 0 255 0 0
-0.116894 0.831085 0.422004 0 0 0 255 0 0
-0.142596 0.749548 0.370128 0 0 0 255 0 0
-0.168298 0.66801 0.318253 0 0 0 255 0 0
-0.194 0.586473 0.266377 0 0 0 255 0 0
-0.219702 0.504936 0.214502 0 0 0 255 0 0
-0.245404 0.423398 0.162626 0 0 0 255 0 0
-0.271106 0.341861 0.110751 0 0 0 255 0 0
-0.296808 0.260324 0.0588754 0 0 0 255 0 0
-0.32251 0.178786 0.00699994 0 0 0 255 0 0
-0.348213 0.097249 -0.0448756 0 0 0 255 0 0
-0.373915 0.0157116 -0.0967511 0 0 0 255 0 0
-0.399617 -0.0658257 -0.148627 0 0 0 255 0 0
-0.425319 -0.147363 -0.200502 0 0 0 255 0 0
0.130738 1.34835 0.83566 0 0 0 255 0 0
0.105036 1.26682 0.783784 0 0 0 255 0 0
0.0793338 1.18528 0.731909 0 0 0 255 0 0
0.0536317 1.10374 0.680033 0 0 0 255 0 0
0.0279296 1.0222 0.628158 0 0 0 255 0 0
0.00222746 0.940668 0.576282 0 0 0 255 0 0
-0.0234746 0.85913 0.524407 0 0 0 255 0 0
-0.0491768 0.777593 0.472531 0 0 0 255 0 0
-0.0748789 0.696056 0.420656 0 0 0 255 0 0
-0.100581 0.614518 0.36878 0 0 0 255 0 0
-0.126283 0.532981 0.316905 0 0 0 255 0 0
-0.151985 0.451443 0.265029 0 0 0 255 0 0
-0.177687 0.369906 0.213154 0 0 0 255 0 0
-0.203389 0.288369 0.161278 0 0 0 255 0 0
-0.229092 0.206832 0.109403 0 0 0 255 0 0
-0.254794 0.125294 0.0575275 0 0 0 255 0 0
-0.280496 0.0437568 0.00565198 0 0 0 255 0 0
-0.306198 -0.0377805 -0.0462235 0 0 0 255 0 0
-0.3319 -0.119318 -0.098099 0 0 0 255 0 0
-0.357602 -0.200855 -0.149974 0 0 0 255 0 0
0.198455 1.29486 0.886187 0 0 0 255 0 0
0.172753 1.21332 0.834312 0 0 0 255 0 0
0.147051 1.13179 0.782436 0 0 0 255 0 0
0.121348 1.05025 0.730561 0 0 0 255 0 0
0.0956464 0.968713 0.678685 0 0 0 255 0 0
0.0699442 0.887175 0.62681 0 0 0 255 0 0
0.0442421 0.805638 0.574934 0 0 0 255 0 0
0.01854 0.724101 0.523059 0 0 0 255 0 0
-0.00716209 0.642563 0.471183 0 0 0 255 0 0
-0.0328642 0.561026 0.419308 0 0 0 255 0 0
-0.0585663 0.479489 0.367432 0 0 0 255 0 0
-0.0842684 0.397951 0.315557 0 0 0 255 0 0
-0.109971 0.316414 0.263681 0 0 0 255 0 0
-0.135673 0.234877 0.211806 0 0 0 255 0 0
-0.161375 0.153339 0.15993 0 0 0 255 0 0
-0.187077 0.0718021 0.108055 0 0 0 255 0 0
-0.212779 -0.00973526 0.0561795 0 0 0 255 0 0
-0.238481 -0.0912726 0.00430402 0 0 0 255 0 0
-0.264183 -0.17281 -0.0475715 0 0 0 255 0 0
-0.289885 -0.254347 -0.099447 0 0 0 255 0 0
0.266172 1.24137 0.936715 0 0 0 255 0 0
0.24047 1.15983 0.884839 0 0 0 255 0 0
0.214767 1.0783 0.832964 0 0 0 255 0 0
0.189065 0.996758 0.781088 0 0 0 255 0 0
0.163363 0.915221 0.729213 0 0 0 255 0 0
0.137661 0.833683 0.677337 0 0 0 255 0 0
0.111959 0.752146 0.625462 0 0 0 255 0 0
0.0862568 0.670609 0.573586 0 0 0 255 0 0
0.0605547 0.589071 0.521711 0 0 0 255 0 0
0.0348526 0.507534 0.469835 0 0 0 255 0 0
0.00915046 0.425997 0.41796 0 0 0 255 0 0
-0.0165517 0.344459 0.366084 0 0 0 255 0 0
-0.0422538 0.262922 0.314209 0 0 0 255 0 0
-0.0679559 0.181385 0.262333 0 0 0 255 0 0
-0.093658 0.0998473 0.210458 0 0 0 255 0 0
-0.11936 0.01831 0.158583 0 0 0 255 0 0
-0.145062 -0.0632274 0.106707 0 0 0 255 0 0
-0.170764 -0.144765 0.0548316 0 0 0 255 0 0
-0.196466 -0.226302 0.00295606 0 0 0 255 0 0
-0.222169 -0.307839 -0.0489194 0 0 0 255 0 0
0.333888 1.18788 0.987242 0 0 0 255 0 0
0.308186 1.10634 0.935367 0 0 0 255 0 0
0.282484 1.0248 0.883491 0 0 0 255 0 0
0.256782 0.943266 0.831616 0 0 0 255 0 0
0.23108 0.861728 0.77974 0 0 0 255 0 0
0.205378 0.780191 0.727865 0 0 0 255 0 0
0.179676 0.698654 0.675989 0 0 0 255 0 0
0.153974 0.617116 0.624114 0 0 0 255 0 0
0.128271 0.535579 0.572238 0 0 0 255 0 0
0.102569 0.454042 0.520363 0 0 0 255 0 0
0.0768673 0.372504 0.468487 0 0 0 255 0 0
0.0511651 0.290967 0.416612 0 0 0 255 0 0
0.025463 0.20943 0.364736 0 0 0 255 0 0
-0.000239093 0.127892 0.312861 0 0 0 255 0 0
-0.0259412 0.0463552 0.260986 0 0 0 255 0 0
-0.0516433 -0.0351821 0.20911 0 0 0 255 0 0
-0.0773454 -0.11672 0.157235 0 0 0 255 0 0
-0.103048 -0.198257 0.105359 0 0 0 255 0 0
-0.12875 -0.279794 0.0534836 0 0 0 255 0 0
-0.154452 -0.361332 0.00160813 0 0 0 255 0 0
0.401605 1.13439 1.03777 0 0 0 255 0 0
0.375903 1.05285 0.985894 0 0 0 255 0 0
0.350201 0.971311 0.934019 0 0 0 255 0 0
0.324499 0.889774 0.882143 0 0 0 255 0 0
0.298797 0.808236 0.830268 0 0 0 255 0 0
0.273095 0.726699 0.778392 0 0 0 255 0 0
0.247392 0.645162 0.726517 0 0 0 255 0 0
0.22169 0.563624 0.674641 0 0 0 255 0 0
0.195988 0.482087 0.622766 0 0 0 255 0 0
0.170286 0.40055 0.57089 0 0 0 255 0 0
0.144584 0.319012 0.519015 0 0 0 255 0 0
0.118882 0.237475 0.46714 0 0 0 255 0 0
0.0931798 0.155938 0.415264 0 0 0 255 0 0
0.0674777 0.0744004 0.363389 0 0 0 255 0 0
0.0417756 -0.00713694 0.311513 0 0 0 255 0 0
0.0160734 -0.0886743 0.259638 0 0 0 255 0 0
-0.00962867 -0.170212 0.207762 0 0 0 255 0 0
-0.0353308 -0.251749 0.155887 0 0 0 255 0 0
-0.0610329 -0.333286 0.104011 0 0 0 255 0 0
-0.086735 -0.414824 0.0521357 0 0 0 255 0 0
0.469322 1.08089 1.0883 0 0 0 255 0 0
0.44362 0.999356 1.03642 0 0 0 255 0 0
0.417918 0.917819 0.984546 0 0 0 255 0 0
0.392216 0.836282 0.932671 0 0 0 255 0 0
0.366513 0.754744 0.880795 0 0 0 255 0 0
0.340811 0.673207 0.82892 0 0 0 255 0 0
0.315109 0.59167 0.777044 0 0 0 255 0 0
0.289407 0.510132 0.725169 0 0 0 255 0 0
0.263705 0.428595 0.673293 0 0 0 255 0 0
0.238003 0.347058 0.621418 0 0 0 255 0 0
0.212301 0.26552 0.569543 0 0 0 255 0 0
0.186599 0.183983 0.517667 0 0 0 255 0 0
0.160897 0.102446 0.465792 0 0 0 255 0 0
0.135194 0.0209083 0.413916 0 0 0 255 0 0
0.109492 -0.060629 0.362041 0 0 0 255 0 0
0.0837902 -0.142166 0.310165 0 0 0 255 0 0
0.0580881 -0.223704 0.25829 0 0 0 255 0 0
0.032386 -0.305241 0.206414 0 0 0 255 0 0
0.00668385 -0.386778 0.154539 0 0 0 255 0 0
-0.0190183 -0.468316 0.102663 0 0 0 255 0 0
0.537039 1.0274 1.13882 0 0 0 255 0 0
0.511337 0.945864 1.08695 0 0 0 255 0 0
0.485634 0.864327 1.03507 0 0 0 255 0 0
0.459932 0.782789 0.983198 0 0 0 255 0 0
0.43423 0.701252 0.931323 0 0 0 255 0 0
0.408528 0.619715 0.879447 0 0 0 255 0 0
0.382826 0.538177 0.827572 0 0 0 255 0 0
0.357124 0.45664 0.775697 0 0 0 255 0 0
0.331422 0.375103 0.723821 0 0 0 255 0 0
0.30572 0.293565 0.671946 0 0 0 255 0 0
0.280018 0.212028 0.62007 0 0 0 255 0 0
0.254315 0.130491 0.568195 0 0 0 255 0 0
0.228613 0.0489535 0.516319 0 0 0 255 0 0
0.202911 -0.0325839 0.464444 0 0 0 255 0 0
0.177209 -0.114121 0.412568 0 0 0 255 0 0
0.151507 -0.195658 0.360693 0 0 0 255 0 0
0.125805 -0.277196 0.308817 0 0 0 255 0 0
0.100103 -0.358733 0.256942 0 0 0 255 0 0
0.0744006 -0.440271 0.205066 0 0 0 255 0 0
0.0486985 -0.521808 0.153191 0 0 0 255 0 0
0.604756 0.973909 1.18935 0 0 0 255 0 0
0.579053 0.892372 1.13748 0 0 0 255 0 0
0.553351 0.810835 1.0856 0 0 0 255 0 0
0.527649 0.729297 1.03373 0 0 0 255 0 0
0.501947 0.64776 0.981851 0 0 0 255 0 0
0.476245 0.566223 0.929975 0 0 0 255 0 0
0.450543 0.484685 0.8781 0 0 0 255 0 0
0.424841 0.403148 0.826224 0 0 0 255 0 0
0.399139 0.321611 0.774349 0 0 0 255 0 0
0.373436 0.240073 0.722473 0 0 0 255 0 0
0.347734 0.158536 0.670598 0 0 0 255 0 0
0.322032 0.0769987 0.618722 0 0 0 255 0 0
0.29633 -0.00453863 0.566847 0 0 0 255 0 0
0.270628 -0.086076 0.514971 0 0 0 255 0 0
0.244926 -0.167613 0.463096 0 0 0 255 0 0
0.219224 -0.249151 0.41122 0 0 0 255 0 0
0.193522 -0.330688 0.359345 0 0 0 255 0 0
0.16782 -0.412225 0.307469 0 0 0 255 0 0
0.142117 -0.493763 0.255594 0 0 0 255 0 0
0.116415 -0.5753 0.203718 0 0 0 255 0 0
0.672472 0.920417 1.23988 0 0 0 255 0 0
0.64677 0.83888 1.188 0 0 0 255 0 0
0.621068 0.757343 1.13613 0 0 0 255 0 0
0.595366 0.675805 1.08425 0 0 0 255 0 0
0.569664 0.594268 1.03238 0 0 0 255 0 0
0.543962 0.512731 0.980502 0 0 0 255 0 0
0.51826 0.431193 0.928627 0 0 0 255 0 0
0.492557 0.349656 0.876752 0 0 0 255 0 0
0.466855 0.268119 0.824876 0 0 0 255 0 0
0.441153 0.186581 0.773001 0 0 0 255 0 0
0.415451 0.105044 0.721125 0 0 0 255 0 0
0.389749 0.0235066 0.66925 0 0 0 255 0 0
0.364047 -0.0580308 0.617374 0 0 0 255 0 0
0.338345 -0.139568 0.565499 0 0 0 255 0 0
0.312643 -0.221105 0.513623 0 0 0 255 0 0
0.286941 -0.302643 0.461748 0 0 0 255 0 0
0.261238 -0.38418 0.409872 0 0 0 255 0 0
0.235536 -0.465717 0.357997 0 0 0 255 0 0
0.209834 -0.547255 0.306121 0 0 0 255 0 0
0.184132 -0.628792 0.254246 0 0 0 255 0 0
0.740189 0.866925 1.29041 0 0 0 255 0 0
0.714487 0.785388 1.23853 0 0 0 255 0 0
0.688785 0.70385 1.18666 0 0 0 255 0 0
0.663083 0.622313 1.13478 0 0 0 255 0 0
0.637381 0.540776 1.08291 0 0 0 255 0 0
0.611678 0.459238 1.03103 0 0 0 255 0 0
0.585976 0.377701 0.979155 0 0 0 255 0 0
0.560274 0.296164 0.927279 0 0 0 255 0 0
0.534572 0.214626 0.875404 0 0 0 255 0 0
0.50887 0.133089 0.823528 0 0 0 255 0 0
0.483168 0.0515518 0.771653 0 0 0 255 0 0
0.457466 -0.0299856 0.719777 0 0 0 255 0 0
0.431764 -0.111523 0.667902 0 0 0 255 0 0
0.406062 -0.19306 0.616026 0 0 0 255 0 0
0.380359 -0.274598 0.564151 0 0 0 255 0 0
0.354657 -0.356135 0.512275 0 0 0 255 0 0
0.328955 -0.437672 0.4604 0 0 0 255 0 0
0.303253 -0.51921 0.408524 0 0 0 255 0 0
0.277551 -0.600747 0.356649 0 0 0 255 0 0
0.251849 -0.682284 0.304773 0 0 0 255 0 0
0.807906 0.813433 1.34094 0 0 0 255 0 0
0.782204 0.731896 1.28906 0 0 0 255 0 0
0.756502 0.650358 1.23718 0 0 0 255 0 0
0.7308 0.568821 1.18531 0 0 0 255 0 0
0.705097 0.487284 1.13343 0 0 0 255 0 0
0.679395 0.405746 1.08156 0 0 0 255 0 0
0.653693 0.324209 1.02968 0 0 0 255 0 0
0.627991 0.242672 0.977807 0 0 0 255 0 0
0.602289 0.161134 0.925931 0 0 0 255 0 0
0.576587 0.079597 0.874056 0 0 0 255 0 0
0.550885 -0.00194037 0.82218 0 0 0 255 0 0
0.525183 -0.0834777 0.770305 0 0 0 255 0 0
0.499481 -0.165015 0.718429 0 0 0 255 0 0
0.473778 -0.246552 0.666554 0 0 0 255 0 0
0.448076 -0.32809 0.614678 0 0 0 255 0 0
0.422374 -0.409627 0.562803 0 0 0 255 0 0
0.396672 -0.491164 0.510927 0 0 0 255 0 0
0.37097 -0.572702 0.459052 0 0 0 255 0 0
0.345268 -0.654239 0.407176 0 0 0 255 0 0
0.319566 -0.735776 0.355301 0 0 0 255 0 0
