ply
format ascii 1.0
element vertex 400
property float x
property float y
property float z
property float nx
property float ny
property float nz
property uchar red
property uchar green
property uchar blue
end_header
-0.328616 1.56546 -0.000863314 0 0 0 255 0 0
-0.253339 1.50112 -0.0148156 0 0 0 255 0 0
-0.178063 1.43679 -0.0287679 0 0 0 255 0 0
-0.102787 1.37245 -0.0427202 0 0 0 255 0 0
-0.0275105 1.30812 -0.0566726 0 0 0 255 0 0
0.0477657 1.24379 -0.0706248 0 0 0 255 0 0
0.123042 1.17945 -0.0845771 0 0 0 255 0 0
0.198318 1.11512 -0.0985295 0 0 0 255 0 0
0.273595 1.05079 -0.112482 0 0 0 255 0 0
0.348871 0.986453 -0.126434 0 0 0 255 0 0
0.424147 0.922119 -0.140386 0 0 0 255 0 0
0.499423 0.857786 -0.154339 0 0 0 255 0 0
0.5747 0.793452 -0.168291 0 0 0 255 0 0
0.649976 0.729118 -0.182243 0 0 0 255 0 0
0.725252 0.664785 -0.196196 0 0 0 255 0 0
0.800529 0.600451 -0.210148 0 0 0 255 0 0
0.875805 0.536117 -0.2241 0 0 0 255 0 0
0.951081 0.471784 -0.238053 0 0 0 255 0 0
1.02636 0.40745 -0.252005 0 0 0 255 0 0
1.10163 0.343117 -0.265957 0 0 0 255 0 0
-0.37094 1.50192 0.0637304 0 0 0 255 0 0
-0.295664 1.43759 0.0497781 0 0 0 255 0 0
-0.220387 1.37326 0.0358258 0 0 0 255 0 0
-0.145111 1.30892 0.0218734 0 0 0 255 0 0
-0.0698348 1.24459 0.00792113 0 0 0 255 0 0
0.00544147 1.18026 -0.00603116 0 0 0 255 0 0
0.0807178 1.11592 -0.0199835 0 0 0 255 0 0
0.155994 1.05159 -0.0339358 0 0 0 255 0 0
0.23127 0.987254 -0.0478881 0 0 0 255 0 0
0.306547 0.922921 -0.0618404 0 0 0 255 0 0
0.381823 0.858587 -0.0757927 0 0 0 255 0 0
0.457099 0.794253 -0.089745 0 0 0 255 0 0
0.532375 0.72992 -0.103697 0 0 0 255 0 0
0.607652 0.665586 -0.11765 0 0 0 255 0 0
0.682928 0.601253 -0.131602 0 0 0 255 0 0
0.758204 0.536919 -0.145554 0 0 0 255 0 0
0.833481 0.472585 -0.159507 0 0 0 255 0 0
0.908757 0.408252 -0.173459 0 0 0 255 0 0
0.984033 0.343918 -0.187411 0 0 0 255 0 0
1.05931 0.279584 -0.201364 0 0 0 255 0 0
-0.413264 1.43839 0.128324 0 0 0 255 0 0
-0.337988 1.37406 0.114372 0 0 0 255 0 0
-0.262712 1.30972 0.100419 0 0 0 255 0 0
-0.187435 1.24539 0.0864671 0 0 0 255 0 0
-0.112159 1.18106 0.0725148 0 0 0 255 0 0
-0.0368828 1.11672 0.0585625 0 0 0 255 0 0
0.0383935 1.05239 0.0446102 0 0 0 255 0 0
0.11367 0.988056 0.0306579 0 0 0 255 0 0
0.188946 0.923722 0.0167055 0 0 0 255 0 0
0.264222 0.859389 0.00275326 0 0 0 255 0 0
0.339499 0.795055 -0.0111991 0 0 0 255 0 0
0.414775 0.730721 -0.0251514 0 0 0 255 0 0
0.490051 0.666388 -0.0391037 0 0 0 255 0 0
0.565327 0.602054 -0.053056 0 0 0 255 0 0
0.640604 0.537721 -0.0670083 0 0 0 255 0 0
0.71588 0.473387 -0.0809606 0 0 0 255 0 0
0.791156 0.409053 -0.0949129 0 0 0 255 0 0
0.866433 0.34472 -0.108865 0 0 0 255 0 0
0.941709 0.280386 -0.122818 0 0 0 255 0 0
1.01699 0.216052 -0.13677 0 0 0 255 0 0
-0.455589 1.37486 0.192918 0 0 0 255 0 0
-0.380312 1.31053 0.178965 0 0 0 255 0 0
-0.305036 1.24619 0.165013 0 0 0 255 0 0
-0.22976 1.18186 0.151061 0 0 0 255 0 0
-0.154483 1.11752 0.137108 0 0 0 255 0 0
-0.0792071 1.05319 0.123156 0 0 0 255 0 0
-0.00393082 0.988858 0.109204 0 0 0 255 0 0
0.0713455 0.924524 0.0952515 0 0 0 255 0 0
0.146622 0.86019 0.0812992 0 0 0 255 0 0
0.221898 0.795857 0.0673469 0 0 0 255 0 0
0.297174 0.731523 0.0533946 0 0 0 255 0 0
0.372451 0.667189 0.0394423 0 0 0 255 0 0
0.447727 0.602856 0.02549 0 0 0 255 0 0
0.523003 0.538522 0.0115376 0 0 0 255 0 0
0.598279 0.474189 -0.00241464 0 0 0 255 0 0
0.673556 0.409855 -0.016367 0 0 0 255 0 0
0.748832 0.345521 -0.0303193 0 0 0 255 0 0
0.824108 0.281188 -0.0442716 0 0 0 255 0 0
0.899385 0.216854 -0.0582239 0 0 0 255 0 0
0.974661 0.15252 -0.0721762 0 0 0 255 0 0
-0.497913 1.31133 0.257511 0 0 0 255 0 0
-0.422637 1.24699 0.243559 0 0 0 255 0 0
-0.34736 1.18266 0.229607 0 0 0 255 0 0
-0.272084 1.11833 0.215654 0 0 0 255 0 0
-0.196808 1.05399 0.201702 0 0 0 255 0 0
-0.121531 0.989659 0.18775 0 0 0 255 0 0
-0.0462551 0.925326 0.173797 0 0 0 255 0 0
0.0290212 0.860992 0.159845 0 0 0 255 0 0
0.104297 0.796658 0.145893 0 0 0 255 0 0
0.179574 0.732325 0.131941 0 0 0 255 0 0
0.25485 0.667991 0.117988 0 0 0 255 0 0
0.330126 0.603657 0.104036 0 0 0 255 0 0
0.405403 0.539324 0.0900836 0 0 0 255 0 0
0.480679 0.47499 0.0761313 0 0 0 255 0 0
0.555955 0.410657 0.062179 0 0 0 255 0 0
0.631231 0.346323 0.0482267 0 0 0 255 0 0
0.706508 0.281989 0.0342743 0 0 0 255 0 0
0.781784 0.217656 0.020322 0 0 0 255 0 0
0.85706 0.153322 0.00636971 0 0 0 255 0 0
0.932337 0.0889884 -0.0075826 0 0 0 255 0 0
-0.540237 1.2478 0.322105 0 0 0 255 0 0
-0.464961 1.18346 0.308153 0 0 0 255 0 0
-0.389685 1.11913 0.2942 0 0 0 255 0 0
-0.314408 1.05479 0.280248 0 0 0 255 0 0
-0.239132 0.990461 0.266296 0 0 0 255 0 0
-0.163856 0.926127 0.252343 0 0 0 255 0 0
-0.0885794 0.861793 0.238391 0 0 0 255 0 0
-0.0133031 0.79746 0.224439 0 0 0 255 0 0
0.0619732 0.733126 0.210486 0 0 0 255 0 0
0.137249 0.668793 0.196534 0 0 0 255 0 0
0.212526 0.604459 0.182582 0 0 0 255 0 0
0.287802 0.540125 0.16863 0 0 0 255 0 0
0.363078 0.475792 0.154677 0 0 0 255 0 0
0.438355 0.411458 0.140725 0 0 0 255 0 0
0.513631 0.347125 0.126773 0 0 0 255 0 0
0.588907 0.282791 0.11282 0 0 0 255 0 0
0.664183 0.218457 0.098868 0 0 0 255 0 0
0.73946 0.154124 0.0849157 0 0 0 255 0 0
0.814736 0.08979 0.0709634 0 0 0 255 0 0
0.890012 0.0254564 0.057011 0 0 0 255 0 0
-0.582561 1.18426 0.386699 0 0 0 255 0 0
-0.507285 1.11993 0.372746 0 0 0 255 0 0
-0.432009 1.0556 0.358794 0 0 0 255 0 0
-0.356733 0.991262 0.344842 0 0 0 255 0 0
-0.281456 0.926929 0.330889 0 0 0 255 0 0
-0.20618 0.862595 0.316937 0 0 0 255 0 0
-0.130904 0.798261 0.302985 0 0 0 255 0 0
-0.0556274 0.733928 0.289032 0 0 0 255 0 0
0.0196489 0.669594 0.27508 0 0 0 255 0 0
0.0949252 0.605261 0.261128 0 0 0 255 0 0
0.170201 0.540927 0.247176 0 0 0 255 0 0
0.245478 0.476593 0.233223 0 0 0 255 0 0
0.320754 0.41226 0.219271 0 0 0 255 0 0
0.39603 0.347926 0.205319 0 0 0 255 0 0
0.471307 0.283593 0.191366 0 0 0 255 0 0
0.546583 0.219259 0.177414 0 0 0 255 0 0
0.621859 0.154925 0.163462 0 0 0 255 0 0
0.697135 0.0905916 0.149509 0 0 0 255 0 0
0.772412 0.026258 0.135557 0 0 0 255 0 0
0.847688 -0.0380757 0.121605 0 0 0 255 0 0
-0.624886 1.12073 0.451292 0 0 0 255 0 0
-0.549609 1.0564 0.43734 0 0 0 255 0 0
-0.474333 0.992064 0.423388 0 0 0 255 0 0
-0.399057 0.92773 0.409435 0 0 0 255 0 0
-0.323781 0.863397 0.395483 0 0 0 255 0 0
-0.248504 0.799063 0.381531 0 0 0 255 0 0
-0.173228 0.734729 0.367578 0 0 0 255 0 0
-0.0979517 0.670396 0.353626 0 0 0 255 0 0
-0.0226754 0.606062 0.339674 0 0 0 255 0 0
0.0526009 0.541729 0.325721 0 0 0 255 0 0
0.127877 0.477395 0.311769 0 0 0 255 0 0
0.203153 0.413061 0.297817 0 0 0 255 0 0
0.27843 0.348728 0.283864 0 0 0 255 0 0
0.353706 0.284394 0.269912 0 0 0 255 0 0
0.428982 0.220061 0.25596 0 0 0 255 0 0
0.504259 0.155727 0.242008 0 0 0 255 0 0
0.579535 0.0913932 0.228055 0 0 0 255 0 0
0.654811 0.0270596 0.214103 0 0 0 255 0 0
0.730088 -0.037274 0.200151 0 0 0 255 0 0
0.805364 -0.101608 0.186198 0 0 0 255 0 0
-0.66721 1.0572 0.515886 0 0 0 255 0 0
-0.591934 0.992866 0.501934 0 0 0 255 0 0
-0.516657 0.928532 0.487981 0 0 0 255 0 0
-0.441381 0.864198 0.474029 0 0 0 255 0 0
-0.366105 0.799865 0.460077 0 0 0 255 0 0
-0.290829 0.735531 0.446124 0 0 0 255 0 0
-0.215552 0.671197 0.432172 0 0 0 255 0 0
-0.140276 0.606864 0.41822 0 0 0 255 0 0
-0.0649996 0.54253 0.404267 0 0 0 255 0 0
0.0102766 0.478197 0.390315 0 0 0 255 0 0
0.0855529 0.413863 0.376363 0 0 0 255 0 0
0.160829 0.349529 0.36241 0 0 0 255 0 0
0.236105 0.285196 0.348458 0 0 0 255 0 0
0.311382 0.220862 0.334506 0 0 0 255 0 0
0.386658 0.156528 0.320554 0 0 0 255 0 0
0.461934 0.0921949 0.306601 0 0 0 255 0 0
0.537211 0.0278612 0.292649 0 0 0 255 0 0
0.612487 -0.0364724 0.278697 0 0 0 255 0 0
0.687763 -0.100806 0.264744 0 0 0 255 0 0
0.76304 -0.16514 0.250792 0 0 0 255 0 0
-0.709534 0.993667 0.58048 0 0 0 255 0 0
-0.634258 0.929334 0.566527 0 0 0 255 0 0
-0.558982 0.865 0.552575 0 0 0 255 0 0
-0.483705 0.800666 0.538623 0 0 0 255 0 0
-0.408429 0.736333 0.52467 0 0 0 255 0 0
-0.333153 0.671999 0.510718 0 0 0 255 0 0
-0.257877 0.607665 0.496766 0 0 0 255 0 0
-0.1826 0.543332 0.482813 0 0 0 255 0 0
-0.107324 0.478998 0.468861 0 0 0 255 0 0
-0.0320476 0.414665 0.454909 0 0 0 255 0 0
0.0432286 0.350331 0.440956 0 0 0 255 0 0
0.118505 0.285997 0.427004 0 0 0 255 0 0
0.193781 0.221664 0.413052 0 0 0 255 0 0
0.269058 0.15733 0.399099 0 0 0 255 0 0
0.344334 0.0929965 0.385147 0 0 0 255 0 0
0.41961 0.0286628 0.371195 0 0 0 255 0 0
0.494886 -0.0356708 0.357243 0 0 0 255 0 0
0.570163 -0.100004 0.34329 0 0 0 255 0 0
0.645439 -0.164338 0.329338 0 0 0 255 0 0
0.720715 -0.228672 0.315386 0 0 0 255 0 0
-0.751859 0.930135 0.645073 0 0 0 255 0 0
-0.676582 0.865801 0.631121 0 0 0 255 0 0
-0.601306 0.801468 0.617169 0 0 0 255 0 0
-0.52603 0.737134 0.603216 0 0 0 255 0 0
-0.450753 0.672801 0.589264 0 0 0 255 0 0
-0.375477 0.608467 0.575312 0 0 0 255 0 0
-0.300201 0.544133 0.561359 0 0 0 255 0 0
-0.224924 0.4798 0.547407 0 0 0 255 0 0
-0.149648 0.415466 0.533455 0 0 0 255 0 0
-0.0743719 0.351133 0.519502 0 0 0 255 0 0
0.000904361 0.286799 0.50555 0 0 0 255 0 0
0.0761807 0.222465 0.491598 0 0 0 255 0 0
0.151457 0.158132 0.477645 0 0 0 255 0 0
0.226733 0.093798 0.463693 0 0 0 255 0 0
0.30201 0.0294644 0.449741 0 0 0 255 0 0
0.377286 -0.0348692 0.435789 0 0 0 255 0 0
0.452562 -0.0992028 0.421836 0 0 0 255 0 0
0.527838 -0.163536 0.407884 0 0 0 255 0 0
0.603115 -0.22787 0.393932 0 0 0 255 0 0
0.678391 -0.292204 0.379979 0 0 0 255 0 0
-0.794183 0.866603 0.709667 0 0 0 255 0 0
-0.718907 0.802269 0.695715 0 0 0 255 0 0
-0.64363 0.737936 0.681762 0 0 0 255 0 0
-0.568354 0.673602 0.66781 0 0 0 255 0 0
-0.493078 0.609269 0.653858 0 0 0 255 0 0
-0.417801 0.544935 0.639905 0 0 0 255 0 0
-0.342525 0.480601 0.625953 0 0 0 255 0 0
-0.267249 0.416268 0.612001 0 0 0 255 0 0
-0.191972 0.351934 0.598048 0 0 0 255 0 0
-0.116696 0.2876 0.584096 0 0 0 255 0 0
-0.0414199 0.223267 0.570144 0 0 0 255 0 0
0.0338564 0.158933 0.556191 0 0 0 255 0 0
0.109133 0.0945996 0.542239 0 0 0 255 0 0
0.184409 0.030266 0.528287 0 0 0 255 0 0
0.259685 -0.0340676 0.514334 0 0 0 255 0 0
0.334962 -0.0984012 0.500382 0 0 0 255 0 0
0.410238 -0.162735 0.48643 0 0 0 255 0 0
0.485514 -0.227068 0.472478 0 0 0 255 0 0
0.56079 -0.291402 0.458525 0 0 0 255 0 0
0.636067 -0.355736 0.444573 0 0 0 255 0 0
-0.836507 0.803071 0.77426 0 0 0 255 0 0
-0.761231 0.738737 0.760308 0 0 0 255 0 0
-0.685955 0.674404 0.746356 0 0 0 255 0 0
-0.610678 0.61007 0.732404 0 0 0 255 0 0
-0.535402 0.545737 0.718451 0 0 0 255 0 0
-0.460126 0.481403 0.704499 0 0 0 255 0 0
-0.384849 0.417069 0.690547 0 0 0 255 0 0
-0.309573 0.352736 0.676594 0 0 0 255 0 0
-0.234297 0.288402 0.662642 0 0 0 255 0 0
-0.15902 0.224068 0.64869 0 0 0 255 0 0
-0.0837442 0.159735 0.634737 0 0 0 255 0 0
-0.00846791 0.0954012 0.620785 0 0 0 255 0 0
0.0668084 0.0310676 0.606833 0 0 0 255 0 0
0.142085 -0.033266 0.59288 0 0 0 255 0 0
0.217361 -0.0975996 0.578928 0 0 0 255 0 0
0.292637 -0.161933 0.564976 0 0 0 255 0 0
0.367914 -0.226267 0.551023 0 0 0 255 0 0
0.44319 -0.290601 0.537071 0 0 0 255 0 0
0.518466 -0.354934 0.523119 0 0 0 255 0 0
0.593742 -0.419268 0.509167 0 0 0 255 0 0
-0.878831 0.739539 0.838854 0 0 0 255 0 0
-0.803555 0.675205 0.824902 0 0 0 255 0 0
-0.728279 0.610872 0.81095 0 0 0 255 0 0
-0.653003 0.546538 0.796997 0 0 0 255 0 0
-0.577726 0.482204 0.783045 0 0 0 255 0 0
-0.50245 0.417871 0.769093 0 0 0 255 0 0
-0.427174 0.353537 0.75514 0 0 0 255 0 0
-0.351897 0.289204 0.741188 0 0 0 255 0 0
-0.276621 0.22487 0.727236 0 0 0 255 0 0
-0.201345 0.160536 0.713283 0 0 0 255 0 0
-0.126068 0.0962028 0.699331 0 0 0 255 0 0
-0.0507922 0.0318692 0.685379 0 0 0 255 0 0
0.0244841 -0.0324644 0.671426 0 0 0 255 0 0
0.0997604 -0.096798 0.657474 0 0 0 255 0 0
0.175037 -0.161132 0.643522 0 0 0 255 0 0
0.250313 -0.225465 0.629569 0 0 0 255 0 0
0.325589 -0.289799 0.615617 0 0 0 255 0 0
0.400866 -0.354133 0.601665 0 0 0 255 0 0
0.476142 -0.418466 0.587712 0 0 0 255 0 0
0.551418 -0.4828 0.57376 0 0 0 255 0 0
-0.921156 0.676007 0.903448 0 0 0 255 0 0
-0.845879 0.611673 0.889495 0 0 0 255 0 0
-0.770603 0.54734 0.875543 0 0 0 255 0 0
-0.695327 0.483006 0.861591 0 0 0 255 0 0
-0.62005 0.418673 0.847638 0 0 0 255 0 0
-0.544774 0.354339 0.833686 0 0 0 255 0 0
-0.469498 0.290005 0.819734 0 0 0 255 0 0
-0.394222 0.225672 0.805782 0 0 0 255 0 0
-0.318945 0.161338 0.791829 0 0 0 255 0 0
-0.243669 0.0970044 0.777877 0 0 0 255 0 0
-0.168393 0.0326708 0.763925 0 0 0 255 0 0
-0.0931165 -0.0316628 0.749972 0 0 0 255 0 0
-0.0178402 -0.0959964 0.73602 0 0 0 255 0 0
0.0574361 -0.16033 0.722068 0 0 0 255 0 0
0.132712 -0.224664 0.708115 0 0 0 255 0 0
0.207989 -0.288997 0.694163 0 0 0 255 0 0
0.283265 -0.353331 0.680211 0 0 0 255 0 0
0.358541 -0.417664 0.666258 0 0 0 255 0 0
0.433818 -0.481998 0.652306 0 0 0 255 0 0
0.509094 -0.546332 0.638354 0 0 0 255 0 0
-0.96348 0.612475 0.968041 0 0 0 255 0 0
-0.888204 0.548141 0.954089 0 0 0 255 0 0
-0.812927 0.483808 0.940137 0 0 0 255 0 0
-0.737651 0.419474 0.926184 0 0 0 255 0 0
-0.662375 0.35514 0.912232 0 0 0 255 0 0
-0.587098 0.290807 0.89828 0 0 0 255 0 0
-0.511822 0.226473 0.884328 0 0 0 255 0 0
-0.436546 0.16214 0.870375 0 0 0 255 0 0
-0.36127 0.097806 0.856423 0 0 0 255 0 0
-0.285993 0.0334724 0.842471 0 0 0 255 0 0
-0.210717 -0.0308612 0.828518 0 0 0 255 0 0
-0.135441 -0.0951948 0.814566 0 0 0 255 0 0
-0.0601645 -0.159528 0.800614 0 0 0 255 0 0
0.0151118 -0.223862 0.786661 0 0 0 255 0 0
0.0903881 -0.288196 0.772709 0 0 0 255 0 0
0.165664 -0.352529 0.758757 0 0 0 255 0 0
0.240941 -0.416863 0.744804 0 0 0 255 0 0
0.316217 -0.481197 0.730852 0 0 0 255 0 0
0.391493 -0.54553 0.7169 0 0 0 255 0 0
0.46677 -0.609864 0.702947 0 0 0 255 0 0
-1.0058 0.548943 1.03264 0 0 0 255 0 0
-0.930528 0.484609 1.01868 0 0 0 255 0 0
-0.855252 0.420276 1.00473 0 0 0 255 0 0
-0.779975 0.355942 0.990778 0 0 0 255 0 0
-0.704699 0.291608 0.976826 0 0 0 255 0 0
-0.629423 0.227275 0.962873 0 0 0 255 0 0
-0.554146 0.162941 0.948921 0 0 0 255 0 0
-0.47887 0.0986076 0.934969 0 0 0 255 0 0
-0.403594 0.034274 0.921017 0 0 0 255 0 0
-0.328318 -0.0300597 0.907064 0 0 0 255 0 0
-0.253041 -0.0943933 0.893112 0 0 0 255 0 0
-0.177765 -0.158727 0.87916 0 0 0 255 0 0
-0.102489 -0.223061 0.865207 0 0 0 255 0 0
-0.0272125 -0.287394 0.851255 0 0 0 255 0 0
0.0480638 -0.351728 0.837303 0 0 0 255 0 0
0.12334 -0.416061 0.82335 0 0 0 255 0 0
0.198616 -0.480395 0.809398 0 0 0 255 0 0
0.273893 -0.544729 0.795446 0 0 0 255 0 0
0.349169 -0.609062 0.781493 0 0 0 255 0 0
0.424445 -0.673396 0.767541 0 0 0 255 0 0
-1.04813 0.485411 1.09723 0 0 0 255 0 0
-0.972852 0.421077 1.08328 0 0 0 255 0 0
-0.897576 0.356744 1.06932 0 0 0 255 0 0
-0.8223 0.29241 1.05537 0 0 0 255 0 0
-0.747023 0.228076 1.04142 0 0 0 255 0 0
-0.671747 0.163743 1.02747 0 0 0 255 0 0
-0.596471 0.0994092 1.01351 0 0 0 255 0 0
-0.521194 0.0350756 0.999563 0 0 0 255 0 0
-0.445918 -0.029258 0.98561 0 0 0 255 0 0
-0.370642 -0.0935917 0.971658 0 0 0 255 0 0
-0.295366 -0.157925 0.957706 0 0 0 255 0 0
-0.220089 -0.222259 0.943753 0 0 0 255 0 0
-0.144813 -0.286593 0.929801 0 0 0 255 0 0
-0.0695367 -0.350926 0.915849 0 0 0 255 0 0
0.00573955 -0.41526 0.901896 0 0 0 255 0 0
0.0810158 -0.479593 0.887944 0 0 0 255 0 0
0.156292 -0.543927 0.873992 0 0 0 255 0 0
0.231568 -0.608261 0.860039 0 0 0 255 0 0
0.306845 -0.672594 0.846087 0 0 0 255 0 0
0.382121 -0.736928 0.832135 0 0 0 255 0 0
-1.09045 0.421879 1.16182 0 0 0 255 0 0
-1.01518 0.357545 1.14787 0 0 0 255 0 0
-0.9399 0.293212 1.13392 0 0 0 255 0 0
-0.864624 0.228878 1.11997 0 0 0 255 0 0
-0.789348 0.164544 1.10601 0 0 0 255 0 0
-0.714071 0.100211 1.09206 0 0 0 255 0 0
-0.638795 0.0358771 1.07811 0 0 0 255 0 0
-0.563519 -0.0284565 1.06416 0 0 0 255 0 0
-0.488242 -0.0927901 1.0502 0 0 0 255 0 0
-0.412966 -0.157124 1.03625 0 0 0 255 0 0
-0.33769 -0.221457 1.0223 0 0 0 255 0 0
-0.262414 -0.285791 1.00835 0 0 0 255 0 0
-0.187137 -0.350125 0.994395 0 0 0 255 0 0
-0.111861 -0.414458 0.980442 0 0 0 255 0 0
-0.0365847 -0.478792 0.96649 0 0 0 255 0 0
0.0386915 -0.543125 0.952538 0 0 0 255 0 0
0.113968 -0.607459 0.938585 0 0 0 255 0 0
0.189244 -0.671793 0.924633 0 0 0 255 0 0
0.26452 -0.736126 0.910681 0 0 0 255 0 0
0.339797 -0.80046 0.896728 0 0 0 255 0 0
-1.13278 0.358347 1.22642 0 0 0 255 0 0
-1.0575 0.294013 1.21246 0 0 0 255 0 0
-0.982224 0.22968 1.19851 0 0 0 255 0 0
-0.906948 0.165346 1.18456 0 0 0 255 0 0
-0.831672 0.101012 1.17061 0 0 0 255 0 0
-0.756396 0.0366787 1.15665 0 0 0 255 0 0
-0.681119 -0.0276549 1.1427 0 0 0 255 0 0
-0.605843 -0.0919885 1.12875 0 0 0 255 0 0
-0.530567 -0.156322 1.1148 0 0 0 255 0 0
-0.45529 -0.220656 1.10085 0 0 0 255 0 0
-0.380014 -0.284989 1.08689 0 0 0 255 0 0
-0.304738 -0.349323 1.07294 0 0 0 255 0 0
-0.229462 -0.413657 1.05899 0 0 0 255 0 0
-0.154185 -0.47799 1.04504 0 0 0 255 0 0
-0.078909 -0.542324 1.03108 0 0 0 255 0 0
-0.00363274 -0.606658 1.01713 0 0 0 255 0 0
0.0716435 -0.670991 1.00318 0 0 0 255 0 0
0.14692 -0.735325 0.989227 0 0 0 255 0 0
0.222196 -0.799658 0.975274 0 0 0 255 0 0
0.297472 -0.863992 0.961322 0 0 0 255 0 0
