ply
format ascii 1.0
element vertex 400
property float x
property float y
property float z
property float nx
property float ny
property float nz
property uchar red
property uchar green
property uchar blue
end_header
-0.856459 1.305 0.441522 0 0 0 255 0 0
-0.876147 1.20702 0.438075 0 0 0 255 0 0
-0.895834 1.10904 0.434629 0 0 0 255 0 0
-0.915521 1.01106 0.431183 0 0 0 255 0 0
-0.935208 0.913075 0.427736 0 0 0 255 0 0
-0.954895 0.815093 0.42429 0 0 0 255 0 0
-0.974582 0.717111 0.420844 0 0 0 255 0 0
-0.99427 0.619128 0.417398 0 0 0 255 0 0
-1.01396 0.521146 0.413951 0 0 0 255 0 0
-1.03364 0.423164 0.410505 0 0 0 255 0 0
-1.05333 0.325181 0.407059 0 0 0 255 0 0
-1.07302 0.227199 0.403612 0 0 0 255 0 0
-1.09271 0.129217 0.400166 0 0 0 255 0 0
-1.11239 0.0312342 0.39672 0 0 0 255 0 0
-1.13208 -0.0667482 0.393273 0 0 0 255 0 0
-1.15177 -0.164731 0.389827 0 0 0 255 0 0
-1.17145 -0.262713 0.386381 0 0 0 255 0 0
-1.19114 -0.360695 0.382934 0 0 0 255 0 0
-1.21083 -0.458678 0.379488 0 0 0 255 0 0
-1.23052 -0.55666 0.376042 0 0 0 255 0 0
-0.758453 1.28524 0.443551 0 0 0 255 0 0
-0.77814 1.18726 0.440105 0 0 0 255 0 0
-0.797827 1.08928 0.436659 0 0 0 255 0 0
-0.817514 0.991294 0.433212 0 0 0 255 0 0
-0.837202 0.893312 0.429766 0 0 0 255 0 0
-0.856889 0.795329 0.42632 0 0 0 255 0 0
-0.876576 0.697347 0.422873 0 0 0 255 0 0
-0.896263 0.599365 0.419427 0 0 0 255 0 0
-0.91595 0.501382 0.415981 0 0 0 255 0 0
-0.935637 0.4034 0.412534 0 0 0 255 0 0
-0.955325 0.305418 0.409088 0 0 0 255 0 0
-0.975012 0.207435 0.405642 0 0 0 255 0 0
-0.994699 0.109453 0.402195 0 0 0 255 0 0
-1.01439 0.0114707 0.398749 0 0 0 255 0 0
-1.03407 -0.0865116 0.395303 0 0 0 255 0 0
-1.05376 -0.184494 0.391856 0 0 0 255 0 0
-1.07345 -0.282476 0.38841 0 0 0 255 0 0
-1.09313 -0.380459 0.384964 0 0 0 255 0 0
-1.11282 -0.478441 0.381518 0 0 0 255 0 0
-1.13251 -0.576423 0.378071 0 0 0 255 0 0
-0.660446 1.26548 0.445581 0 0 0 255 0 0
-0.680133 1.1675 0.442134 0 0 0 255 0 0
-0.699821 1.06951 0.438688 0 0 0 255 0 0
-0.719508 0.971531 0.435242 0 0 0 255 0 0
-0.739195 0.873548 0.431795 0 0 0 255 0 0
-0.758882 0.775566 0.428349 0 0 0 255 0 0
-0.778569 0.677584 0.424903 0 0 0 255 0 0
-0.798256 0.579601 0.421456 0 0 0 255 0 0
-0.817944 0.481619 0.41801 0 0 0 255 0 0
-0.837631 0.383637 0.414564 0 0 0 255 0 0
-0.857318 0.285654 0.411117 0 0 0 255 0 0
-0.877005 0.187672 0.407671 0 0 0 255 0 0
-0.896692 0.0896897 0.404225 0 0 0 255 0 0
-0.916379 -0.00829269 0.400779 0 0 0 255 0 0
-0.936067 -0.106275 0.397332 0 0 0 255 0 0
-0.955754 -0.204257 0.393886 0 0 0 255 0 0
-0.975441 -0.30224 0.39044 0 0 0 255 0 0
-0.995128 -0.400222 0.386993 0 0 0 255 0 0
-1.01482 -0.498204 0.383547 0 0 0 255 0 0
-1.0345 -0.596187 0.380101 0 0 0 255 0 0
-0.56244 1.24571 0.44761 0 0 0 255 0 0
-0.582127 1.14773 0.444164 0 0 0 255 0 0
-0.601814 1.04975 0.440717 0 0 0 255 0 0
-0.621501 0.951767 0.437271 0 0 0 255 0 0
-0.641188 0.853785 0.433825 0 0 0 255 0 0
-0.660875 0.755803 0.430378 0 0 0 255 0 0
-0.680563 0.65782 0.426932 0 0 0 255 0 0
-0.70025 0.559838 0.423486 0 0 0 255 0 0
-0.719937 0.461856 0.420039 0 0 0 255 0 0
-0.739624 0.363873 0.416593 0 0 0 255 0 0
-0.759311 0.265891 0.413147 0 0 0 255 0 0
-0.778998 0.167909 0.409701 0 0 0 255 0 0
-0.798686 0.0699262 0.406254 0 0 0 255 0 0
-0.818373 -0.0280561 0.402808 0 0 0 255 0 0
-0.83806 -0.126038 0.399362 0 0 0 255 0 0
-0.857747 -0.224021 0.395915 0 0 0 255 0 0
-0.877434 -0.322003 0.392469 0 0 0 255 0 0
-0.897122 -0.419986 0.389023 0 0 0 255 0 0
-0.916809 -0.517968 0.385576 0 0 0 255 0 0
-0.936496 -0.61595 0.38213 0 0 0 255 0 0
-0.464433 1.22595 0.449639 0 0 0 255 0 0
-0.48412 1.12797 0.446193 0 0 0 255 0 0
-0.503807 1.02999 0.442747 0 0 0 255 0 0
-0.523494 0.932004 0.4393 0 0 0 255 0 0
-0.543182 0.834022 0.435854 0 0 0 255 0 0
-0.562869 0.736039 0.432408 0 0 0 255 0 0
-0.582556 0.638057 0.428961 0 0 0 255 0 0
-0.602243 0.540074 0.425515 0 0 0 255 0 0
-0.62193 0.442092 0.422069 0 0 0 255 0 0
-0.641618 0.34411 0.418623 0 0 0 255 0 0
-0.661305 0.246127 0.415176 0 0 0 255 0 0
-0.680992 0.148145 0.41173 0 0 0 255 0 0
-0.700679 0.0501628 0.408284 0 0 0 255 0 0
-0.720366 -0.0478195 0.404837 0 0 0 255 0 0
-0.740053 -0.145802 0.401391 0 0 0 255 0 0
-0.759741 -0.243784 0.397945 0 0 0 255 0 0
-0.779428 -0.341767 0.394498 0 0 0 255 0 0
-0.799115 -0.439749 0.391052 0 0 0 255 0 0
-0.818802 -0.537731 0.387606 0 0 0 255 0 0
-0.838489 -0.635714 0.384159 0 0 0 255 0 0
-0.366426 1.20619 0.451669 0 0 0 255 0 0
-0.386114 1.10821 0.448222 0 0 0 255 0 0
-0.405801 1.01022 0.444776 0 0 0 255 0 0
-0.425488 0.912241 0.44133 0 0 0 255 0 0
-0.445175 0.814258 0.437883 0 0 0 255 0 0
-0.464862 0.716276 0.434437 0 0 0 255 0 0
-0.484549 0.618293 0.430991 0 0 0 255 0 0
-0.504237 0.520311 0.427545 0 0 0 255 0 0
-0.523924 0.422329 0.424098 0 0 0 255 0 0
-0.543611 0.324346 0.420652 0 0 0 255 0 0
-0.563298 0.226364 0.417206 0 0 0 255 0 0
-0.582985 0.128382 0.413759 0 0 0 255 0 0
-0.602673 0.0303994 0.410313 0 0 0 255 0 0
-0.62236 -0.067583 0.406867 0 0 0 255 0 0
-0.642047 -0.165565 0.40342 0 0 0 255 0 0
-0.661734 -0.263548 0.399974 0 0 0 255 0 0
-0.681421 -0.36153 0.396528 0 0 0 255 0 0
-0.701108 -0.459512 0.393081 0 0 0 255 0 0
-0.720796 -0.557495 0.389635 0 0 0 255 0 0
-0.740483 -0.655477 0.386189 0 0 0 255 0 0
-0.26842 1.18642 0.453698 0 0 0 255 0 0
-0.288107 1.08844 0.450252 0 0 0 255 0 0
-0.307794 0.990459 0.446806 0 0 0 255 0 0
-0.327481 0.892477 0.443359 0 0 0 255 0 0
-0.347169 0.794495 0.439913 0 0 0 255 0 0
-0.366856 0.696512 0.436467 0 0 0 255 0 0
-0.386543 0.59853 0.43302 0 0 0 255 0 0
-0.40623 0.500548 0.429574 0 0 0 255 0 0
-0.425917 0.402565 0.426128 0 0 0 255 0 0
-0.445604 0.304583 0.422681 0 0 0 255 0 0
-0.465292 0.206601 0.419235 0 0 0 255 0 0
-0.484979 0.108618 0.415789 0 0 0 255 0 0
-0.504666 0.010636 0.412342 0 0 0 255 0 0
-0.524353 -0.0873464 0.408896 0 0 0 255 0 0
-0.54404 -0.185329 0.40545 0 0 0 255 0 0
-0.563727 -0.283311 0.402003 0 0 0 255 0 0
-0.583415 -0.381293 0.398557 0 0 0 255 0 0
-0.603102 -0.479276 0.395111 0 0 0 255 0 0
-0.622789 -0.577258 0.391665 0 0 0 255 0 0
-0.642476 -0.675241 0.388218 0 0 0 255 0 0
-0.170413 1.16666 0.455728 0 0 0 255 0 0
-0.1901 1.06868 0.452281 0 0 0 255 0 0
-0.209788 0.970696 0.448835 0 0 0 255 0 0
-0.229475 0.872714 0.445389 0 0 0 255 0 0
-0.249162 0.774731 0.441942 0 0 0 255 0 0
-0.268849 0.676749 0.438496 0 0 0 255 0 0
-0.288536 0.578767 0.43505 0 0 0 255 0 0
-0.308224 0.480784 0.431603 0 0 0 255 0 0
-0.327911 0.382802 0.428157 0 0 0 255 0 0
-0.347598 0.28482 0.424711 0 0 0 255 0 0
-0.367285 0.186837 0.421264 0 0 0 255 0 0
-0.386972 0.0888549 0.417818 0 0 0 255 0 0
-0.406659 -0.00912745 0.414372 0 0 0 255 0 0
-0.426347 -0.10711 0.410926 0 0 0 255 0 0
-0.446034 -0.205092 0.407479 0 0 0 255 0 0
-0.465721 -0.303074 0.404033 0 0 0 255 0 0
-0.485408 -0.401057 0.400587 0 0 0 255 0 0
-0.505095 -0.499039 0.39714 0 0 0 255 0 0
-0.524782 -0.597022 0.393694 0 0 0 255 0 0
-0.54447 -0.695004 0.390248 0 0 0 255 0 0
-0.0724067 1.1469 0.457757 0 0 0 255 0 0
-0.0920939 1.04891 0.454311 0 0 0 255 0 0
-0.111781 0.950933 0.450864 0 0 0 255 0 0
-0.131468 0.85295 0.447418 0 0 0 255 0 0
-0.151155 0.754968 0.443972 0 0 0 255 0 0
-0.170843 0.656986 0.440525 0 0 0 255 0 0
-0.19053 0.559003 0.437079 0 0 0 255 0 0
-0.210217 0.461021 0.433633 0 0 0 255 0 0
-0.229904 0.363038 0.430186 0 0 0 255 0 0
-0.249591 0.265056 0.42674 0 0 0 255 0 0
-0.269278 0.167074 0.423294 0 0 0 255 0 0
-0.288966 0.0690915 0.419848 0 0 0 255 0 0
-0.308653 -0.0288909 0.416401 0 0 0 255 0 0
-0.32834 -0.126873 0.412955 0 0 0 255 0 0
-0.348027 -0.224856 0.409509 0 0 0 255 0 0
-0.367714 -0.322838 0.406062 0 0 0 255 0 0
-0.387402 -0.42082 0.402616 0 0 0 255 0 0
-0.407089 -0.518803 0.39917 0 0 0 255 0 0
-0.426776 -0.616785 0.395723 0 0 0 255 0 0
-0.446463 -0.714767 0.392277 0 0 0 255 0 0
0.0255999 1.12713 0.459786 0 0 0 255 0 0
0.00591268 1.02915 0.45634 0 0 0 255 0 0
-0.0137745 0.931169 0.452894 0 0 0 255 0 0
-0.0334617 0.833187 0.449447 0 0 0 255 0 0
-0.0531489 0.735204 0.446001 0 0 0 255 0 0
-0.072836 0.637222 0.442555 0 0 0 255 0 0
-0.0925232 0.53924 0.439108 0 0 0 255 0 0
-0.11221 0.441257 0.435662 0 0 0 255 0 0
-0.131898 0.343275 0.432216 0 0 0 255 0 0
-0.151585 0.245293 0.42877 0 0 0 255 0 0
-0.171272 0.14731 0.425323 0 0 0 255 0 0
-0.190959 0.049328 0.421877 0 0 0 255 0 0
-0.210646 -0.0486543 0.418431 0 0 0 255 0 0
-0.230333 -0.146637 0.414984 0 0 0 255 0 0
-0.250021 -0.244619 0.411538 0 0 0 255 0 0
-0.269708 -0.342601 0.408092 0 0 0 255 0 0
-0.289395 -0.440584 0.404645 0 0 0 255 0 0
-0.309082 -0.538566 0.401199 0 0 0 255 0 0
-0.328769 -0.636548 0.397753 0 0 0 255 0 0
-0.348456 -0.734531 0.394306 0 0 0 255 0 0
0.123606 1.10737 0.461816 0 0 0 255 0 0
0.103919 1.00939 0.458369 0 0 0 255 0 0
0.0842321 0.911406 0.454923 0 0 0 255 0 0
0.0645449 0.813423 0.451477 0 0 0 255 0 0
0.0448577 0.715441 0.448031 0 0 0 255 0 0
0.0251706 0.617459 0.444584 0 0 0 255 0 0
0.00548338 0.519476 0.441138 0 0 0 255 0 0
-0.0142038 0.421494 0.437692 0 0 0 255 0 0
-0.033891 0.323512 0.434245 0 0 0 255 0 0
-0.0535781 0.225529 0.430799 0 0 0 255 0 0
-0.0732653 0.127547 0.427353 0 0 0 255 0 0
-0.0929525 0.0295646 0.423906 0 0 0 255 0 0
-0.11264 -0.0684177 0.42046 0 0 0 255 0 0
-0.132327 -0.1664 0.417014 0 0 0 255 0 0
-0.152014 -0.264382 0.413567 0 0 0 255 0 0
-0.171701 -0.362365 0.410121 0 0 0 255 0 0
-0.191388 -0.460347 0.406675 0 0 0 255 0 0
-0.211076 -0.558329 0.403228 0 0 0 255 0 0
-0.230763 -0.656312 0.399782 0 0 0 255 0 0
-0.25045 -0.754294 0.396336 0 0 0 255 0 0
0.221613 1.08761 0.463845 0 0 0 255 0 0
0.201926 0.989625 0.460399 0 0 0 255 0 0
0.182239 0.891642 0.456953 0 0 0 255 0 0
0.162551 0.79366 0.453506 0 0 0 255 0 0
0.142864 0.695678 0.45006 0 0 0 255 0 0
0.123177 0.597695 0.446614 0 0 0 255 0 0
0.10349 0.499713 0.443167 0 0 0 255 0 0
0.0838028 0.401731 0.439721 0 0 0 255 0 0
0.0641156 0.303748 0.436275 0 0 0 255 0 0
0.0444284 0.205766 0.432828 0 0 0 255 0 0
0.0247413 0.107784 0.429382 0 0 0 255 0 0
0.00505409 0.00980121 0.425936 0 0 0 255 0 0
-0.0146331 -0.0881811 0.422489 0 0 0 255 0 0
-0.0343202 -0.186163 0.419043 0 0 0 255 0 0
-0.0540074 -0.284146 0.415597 0 0 0 255 0 0
-0.0736946 -0.382128 0.412151 0 0 0 255 0 0
-0.0933818 -0.48011 0.408704 0 0 0 255 0 0
-0.113069 -0.578093 0.405258 0 0 0 255 0 0
-0.132756 -0.676075 0.401812 0 0 0 255 0 0
-0.152443 -0.774058 0.398365 0 0 0 255 0 0
0.31962 1.06784 0.465875 0 0 0 255 0 0
0.299932 0.969861 0.462428 0 0 0 255 0 0
0.280245 0.871879 0.458982 0 0 0 255 0 0
0.260558 0.773896 0.455536 0 0 0 255 0 0
0.240871 0.675914 0.452089 0 0 0 255 0 0
0.221184 0.577932 0.448643 0 0 0 255 0 0
0.201497 0.479949 0.445197 0 0 0 255 0 0
0.181809 0.381967 0.44175 0 0 0 255 0 0
0.162122 0.283985 0.438304 0 0 0 255 0 0
0.142435 0.186002 0.434858 0 0 0 255 0 0
0.122748 0.0880201 0.431411 0 0 0 255 0 0
0.103061 -0.00996222 0.427965 0 0 0 255 0 0
0.0833735 -0.107945 0.424519 0 0 0 255 0 0
0.0636863 -0.205927 0.421073 0 0 0 255 0 0
0.0439992 -0.303909 0.417626 0 0 0 255 0 0
0.024312 -0.401892 0.41418 0 0 0 255 0 0
0.00462481 -0.499874 0.410734 0 0 0 255 0 0
-0.0150624 -0.597856 0.407287 0 0 0 255 0 0
-0.0347495 -0.695839 0.403841 0 0 0 255 0 0
-0.0544367 -0.793821 0.400395 0 0 0 255 0 0
0.417626 1.04808 0.467904 0 0 0 255 0 0
0.397939 0.950098 0.464458 0 0 0 255 0 0
0.378252 0.852115 0.461011 0 0 0 255 0 0
0.358565 0.754133 0.457565 0 0 0 255 0 0
0.338877 0.656151 0.454119 0 0 0 255 0 0
0.31919 0.558168 0.450672 0 0 0 255 0 0
0.299503 0.460186 0.447226 0 0 0 255 0 0
0.279816 0.362204 0.44378 0 0 0 255 0 0
0.260129 0.264221 0.440333 0 0 0 255 0 0
0.240442 0.166239 0.436887 0 0 0 255 0 0
0.220754 0.0682567 0.433441 0 0 0 255 0 0
0.201067 -0.0297256 0.429995 0 0 0 255 0 0
0.18138 -0.127708 0.426548 0 0 0 255 0 0
0.161693 -0.22569 0.423102 0 0 0 255 0 0
0.142006 -0.323673 0.419656 0 0 0 255 0 0
0.122319 -0.421655 0.416209 0 0 0 255 0 0
0.102631 -0.519637 0.412763 0 0 0 255 0 0
0.0829442 -0.61762 0.409317 0 0 0 255 0 0
0.063257 -0.715602 0.40587 0 0 0 255 0 0
0.0435698 -0.813584 0.402424 0 0 0 255 0 0
0.515633 1.02832 0.469933 0 0 0 255 0 0
0.495946 0.930334 0.466487 0 0 0 255 0 0
0.476258 0.832352 0.463041 0 0 0 255 0 0
0.456571 0.73437 0.459594 0 0 0 255 0 0
0.436884 0.636387 0.456148 0 0 0 255 0 0
0.417197 0.538405 0.452702 0 0 0 255 0 0
0.39751 0.440423 0.449255 0 0 0 255 0 0
0.377822 0.34244 0.445809 0 0 0 255 0 0
0.358135 0.244458 0.442363 0 0 0 255 0 0
0.338448 0.146476 0.438917 0 0 0 255 0 0
0.318761 0.0484933 0.43547 0 0 0 255 0 0
0.299074 -0.0494891 0.432024 0 0 0 255 0 0
0.279387 -0.147471 0.428578 0 0 0 255 0 0
0.259699 -0.245454 0.425131 0 0 0 255 0 0
0.240012 -0.343436 0.421685 0 0 0 255 0 0
0.220325 -0.441418 0.418239 0 0 0 255 0 0
0.200638 -0.539401 0.414792 0 0 0 255 0 0
0.180951 -0.637383 0.411346 0 0 0 255 0 0
0.161264 -0.735366 0.4079 0 0 0 255 0 0
0.141576 -0.833348 0.404453 0 0 0 255 0 0
0.613639 1.00855 0.471963 0 0 0 255 0 0
0.593952 0.910571 0.468516 0 0 0 255 0 0
0.574265 0.812589 0.46507 0 0 0 255 0 0
0.554578 0.714606 0.461624 0 0 0 255 0 0
0.534891 0.616624 0.458177 0 0 0 255 0 0
0.515203 0.518642 0.454731 0 0 0 255 0 0
0.495516 0.420659 0.451285 0 0 0 255 0 0
0.475829 0.322677 0.447839 0 0 0 255 0 0
0.456142 0.224695 0.444392 0 0 0 255 0 0
0.436455 0.126712 0.440946 0 0 0 255 0 0
0.416768 0.0287299 0.4375 0 0 0 255 0 0
0.39708 -0.0692525 0.434053 0 0 0 255 0 0
0.377393 -0.167235 0.430607 0 0 0 255 0 0
0.357706 -0.265217 0.427161 0 0 0 255 0 0
0.338019 -0.363199 0.423714 0 0 0 255 0 0
0.318332 -0.461182 0.420268 0 0 0 255 0 0
0.298645 -0.559164 0.416822 0 0 0 255 0 0
0.278957 -0.657147 0.413375 0 0 0 255 0 0
0.25927 -0.755129 0.409929 0 0 0 255 0 0
0.239583 -0.853111 0.406483 0 0 0 255 0 0
0.711646 0.98879 0.473992 0 0 0 255 0 0
0.691959 0.890808 0.470546 0 0 0 255 0 0
0.672272 0.792825 0.4671 0 0 0 255 0 0
0.652584 0.694843 0.463653 0 0 0 255 0 0
0.632897 0.59686 0.460207 0 0 0 255 0 0
0.61321 0.498878 0.456761 0 0 0 255 0 0
0.593523 0.400896 0.453314 0 0 0 255 0 0
0.573836 0.302913 0.449868 0 0 0 255 0 0
0.554148 0.204931 0.446422 0 0 0 255 0 0
0.534461 0.106949 0.442975 0 0 0 255 0 0
0.514774 0.00896644 0.439529 0 0 0 255 0 0
0.495087 -0.0890159 0.436083 0 0 0 255 0 0
0.4754 -0.186998 0.432636 0 0 0 255 0 0
0.455713 -0.284981 0.42919 0 0 0 255 0 0
0.436025 -0.382963 0.425744 0 0 0 255 0 0
0.416338 -0.480945 0.422297 0 0 0 255 0 0
0.396651 -0.578928 0.418851 0 0 0 255 0 0
0.376964 -0.67691 0.415405 0 0 0 255 0 0
0.357277 -0.774892 0.411959 0 0 0 255 0 0
0.33759 -0.872875 0.408512 0 0 0 255 0 0
0.809653 0.969026 0.476022 0 0 0 255 0 0
0.789965 0.871044 0.472575 0 0 0 255 0 0
0.770278 0.773062 0.469129 0 0 0 255 0 0
0.750591 0.675079 0.465683 0 0 0 255 0 0
0.730904 0.577097 0.462236 0 0 0 255 0 0
0.711217 0.479115 0.45879 0 0 0 255 0 0
0.691529 0.381132 0.455344 0 0 0 255 0 0
0.671842 0.28315 0.451897 0 0 0 255 0 0
0.652155 0.185168 0.448451 0 0 0 255 0 0
0.632468 0.0871854 0.445005 0 0 0 255 0 0
0.612781 -0.010797 0.441558 0 0 0 255 0 0
0.593094 -0.108779 0.438112 0 0 0 255 0 0
0.573406 -0.206762 0.434666 0 0 0 255 0 0
0.553719 -0.304744 0.43122 0 0 0 255 0 0
0.534032 -0.402726 0.427773 0 0 0 255 0 0
0.514345 -0.500709 0.424327 0 0 0 255 0 0
0.494658 -0.598691 0.420881 0 0 0 255 0 0
0.474971 -0.696673 0.417434 0 0 0 255 0 0
0.455283 -0.794656 0.413988 0 0 0 255 0 0
0.435596 -0.892638 0.410542 0 0 0 255 0 0
0.907659 0.949263 0.478051 0 0 0 255 0 0
0.887972 0.851281 0.474605 0 0 0 255 0 0
0.868285 0.753298 0.471158 0 0 0 255 0 0
0.848598 0.655316 0.467712 0 0 0 255 0 0
0.82891 0.557334 0.464266 0 0 0 255 0 0
0.809223 0.459351 0.460819 0 0 0 255 0 0
0.789536 0.361369 0.457373 0 0 0 255 0 0
0.769849 0.263387 0.453927 0 0 0 255 0 0
0.750162 0.165404 0.45048 0 0 0 255 0 0
0.730475 0.0674219 0.447034 0 0 0 255 0 0
0.710787 -0.0305604 0.443588 0 0 0 255 0 0
0.6911 -0.128543 0.440142 0 0 0 255 0 0
0.671413 -0.226525 0.436695 0 0 0 255 0 0
0.651726 -0.324507 0.433249 0 0 0 255 0 0
0.632039 -0.42249 0.429803 0 0 0 255 0 0
0.612351 -0.520472 0.426356 0 0 0 255 0 0
0.592664 -0.618454 0.42291 0 0 0 255 0 0
0.572977 -0.716437 0.419464 0 0 0 255 0 0
0.55329 -0.814419 0.416017 0 0 0 255 0 0
0.533603 -0.912402 0.412571 0 0 0 255 0 0
1.00567 0.9295 0.48008 0 0 0 255 0 0
0.985979 0.831517 0.476634 0 0 0 255 0 0
0.966291 0.733535 0.473188 0 0 0 255 0 0
0.946604 0.635553 0.469741 0 0 0 255 0 0
0.926917 0.53757 0.466295 0 0 0 255 0 0
0.90723 0.439588 0.462849 0 0 0 255 0 0
0.887543 0.341606 0.459402 0 0 0 255 0 0
0.867855 0.243623 0.455956 0 0 0 255 0 0
0.848168 0.145641 0.45251 0 0 0 255 0 0
0.828481 0.0476585 0.449064 0 0 0 255 0 0
0.808794 -0.0503238 0.445617 0 0 0 255 0 0
0.789107 -0.148306 0.442171 0 0 0 255 0 0
0.76942 -0.246289 0.438725 0 0 0 255 0 0
0.749732 -0.344271 0.435278 0 0 0 255 0 0
0.730045 -0.442253 0.431832 0 0 0 255 0 0
0.710358 -0.540236 0.428386 0 0 0 255 0 0
0.690671 -0.638218 0.424939 0 0 0 255 0 0
0.670984 -0.7362 0.421493 0 0 0 255 0 0
0.651297 -0.834183 0.418047 0 0 0 255 0 0
0.631609 -0.932165 0.4146 0 0 0 255 0 0
