ply
format ascii 1.0
element vertex 400
property float x
property float y
property float z
property float nx
property float ny
property float nz
property uchar red
property uchar green
property uchar blue
end_header
-0.790703 1.49089 0.560884 0 0 0 255 0 0
-0.809911 1.39353 0.548598 0 0 0 255 0 0
-0.82912 1.29616 0.536311 0 0 0 255 0 0
-0.848329 1.1988 0.524024 0 0 0 255 0 0
-0.867537 1.10143 0.511737 0 0 0 255 0 0
-0.886746 1.00407 0.49945 0 0 0 255 0 0
-0.905954 0.9067 0.487163 0 0 0 255 0 0
-0.925163 0.809334 0.474876 0 0 0 255 0 0
-0.944371 0.711969 0.462589 0 0 0 255 0 0
-0.96358 0.614603 0.450302 0 0 0 255 0 0
-0.982788 0.517237 0.438015 0 0 0 255 0 0
-1.002 0.419872 0.425728 0 0 0 255 0 0
-1.02121 0.322506 0.413441 0 0 0 255 0 0
-1.04041 0.225141 0.401155 0 0 0 255 0 0
-1.05962 0.127775 0.388868 0 0 0 255 0 0
-1.07883 0.0304094 0.376581 0 0 0 255 0 0
-1.09804 -0.0669563 0.364294 0 0 0 255 0 0
-1.11725 -0.164322 0.352007 0 0 0 255 0 0
-1.13646 -0.261688 0.33972 0 0 0 255 0 0
-1.15567 -0.359053 0.327433 0 0 0 255 0 0
-0.692569 1.47173 0.559317 0 0 0 255 0 0
-0.711777 1.37437 0.54703 0 0 0 255 0 0
-0.730986 1.277 0.534743 0 0 0 255 0 0
-0.750194 1.17963 0.522456 0 0 0 255 0 0
-0.769403 1.08227 0.510169 0 0 0 255 0 0
-0.788611 0.984903 0.497882 0 0 0 255 0 0
-0.80782 0.887538 0.485595 0 0 0 255 0 0
-0.827028 0.790172 0.473308 0 0 0 255 0 0
-0.846237 0.692806 0.461021 0 0 0 255 0 0
-0.865445 0.595441 0.448734 0 0 0 255 0 0
-0.884654 0.498075 0.436447 0 0 0 255 0 0
-0.903862 0.40071 0.424161 0 0 0 255 0 0
-0.923071 0.303344 0.411874 0 0 0 255 0 0
-0.94228 0.205978 0.399587 0 0 0 255 0 0
-0.961488 0.108613 0.3873 0 0 0 255 0 0
-0.980697 0.0112471 0.375013 0 0 0 255 0 0
-0.999905 -0.0861186 0.362726 0 0 0 255 0 0
-1.01911 -0.183484 0.350439 0 0 0 255 0 0
-1.03832 -0.28085 0.338152 0 0 0 255 0 0
-1.05753 -0.378216 0.325865 0 0 0 255 0 0
-0.594434 1.45257 0.557749 0 0 0 255 0 0
-0.613643 1.3552 0.545462 0 0 0 255 0 0
-0.632851 1.25784 0.533175 0 0 0 255 0 0
-0.65206 1.16047 0.520888 0 0 0 255 0 0
-0.671268 1.06311 0.508601 0 0 0 255 0 0
-0.690477 0.965741 0.496314 0 0 0 255 0 0
-0.709685 0.868375 0.484027 0 0 0 255 0 0
-0.728894 0.77101 0.47174 0 0 0 255 0 0
-0.748102 0.673644 0.459453 0 0 0 255 0 0
-0.767311 0.576278 0.447167 0 0 0 255 0 0
-0.78652 0.478913 0.43488 0 0 0 255 0 0
-0.805728 0.381547 0.422593 0 0 0 255 0 0
-0.824937 0.284182 0.410306 0 0 0 255 0 0
-0.844145 0.186816 0.398019 0 0 0 255 0 0
-0.863354 0.0894503 0.385732 0 0 0 255 0 0
-0.882562 -0.00791529 0.373445 0 0 0 255 0 0
-0.901771 -0.105281 0.361158 0 0 0 255 0 0
-0.920979 -0.202647 0.348871 0 0 0 255 0 0
-0.940188 -0.300012 0.336584 0 0 0 255 0 0
-0.959396 -0.397378 0.324297 0 0 0 255 0 0
-0.4963 1.43341 0.556181 0 0 0 255 0 0
-0.515508 1.33604 0.543894 0 0 0 255 0 0
-0.534717 1.23868 0.531607 0 0 0 255 0 0
-0.553925 1.14131 0.51932 0 0 0 255 0 0
-0.573134 1.04394 0.507033 0 0 0 255 0 0
-0.592342 0.946579 0.494746 0 0 0 255 0 0
-0.611551 0.849213 0.482459 0 0 0 255 0 0
-0.63076 0.751847 0.470172 0 0 0 255 0 0
-0.649968 0.654482 0.457886 0 0 0 255 0 0
-0.669177 0.557116 0.445599 0 0 0 255 0 0
-0.688385 0.45975 0.433312 0 0 0 255 0 0
-0.707594 0.362385 0.421025 0 0 0 255 0 0
-0.726802 0.265019 0.408738 0 0 0 255 0 0
-0.746011 0.167654 0.396451 0 0 0 255 0 0
-0.765219 0.070288 0.384164 0 0 0 255 0 0
-0.784428 -0.0270776 0.371877 0 0 0 255 0 0
-0.803636 -0.124443 0.35959 0 0 0 255 0 0
-0.822845 -0.221809 0.347303 0 0 0 255 0 0
-0.842054 -0.319175 0.335016 0 0 0 255 0 0
-0.861262 -0.41654 0.322729 0 0 0 255 0 0
-0.398165 1.41424 0.554613 0 0 0 255 0 0
-0.417374 1.31688 0.542326 0 0 0 255 0 0
-0.436583 1.21951 0.530039 0 0 0 255 0 0
-0.455791 1.12215 0.517752 0 0 0 255 0 0
-0.475 1.02478 0.505465 0 0 0 255 0 0
-0.494208 0.927416 0.493178 0 0 0 255 0 0
-0.513417 0.830051 0.480892 0 0 0 255 0 0
-0.532625 0.732685 0.468605 0 0 0 255 0 0
-0.551834 0.635319 0.456318 0 0 0 255 0 0
-0.571042 0.537954 0.444031 0 0 0 255 0 0
-0.590251 0.440588 0.431744 0 0 0 255 0 0
-0.609459 0.343223 0.419457 0 0 0 255 0 0
-0.628668 0.245857 0.40717 0 0 0 255 0 0
-0.647877 0.148491 0.394883 0 0 0 255 0 0
-0.667085 0.0511257 0.382596 0 0 0 255 0 0
-0.686294 -0.0462399 0.370309 0 0 0 255 0 0
-0.705502 -0.143606 0.358022 0 0 0 255 0 0
-0.724711 -0.240971 0.345735 0 0 0 255 0 0
-0.743919 -0.338337 0.333448 0 0 0 255 0 0
-0.763128 -0.435703 0.321162 0 0 0 255 0 0
-0.300031 1.39508 0.553045 0 0 0 255 0 0
-0.31924 1.29772 0.540758 0 0 0 255 0 0
-0.338448 1.20035 0.528471 0 0 0 255 0 0
-0.357657 1.10299 0.516184 0 0 0 255 0 0
-0.376865 1.00562 0.503897 0 0 0 255 0 0
-0.396074 0.908254 0.491611 0 0 0 255 0 0
-0.415282 0.810888 0.479324 0 0 0 255 0 0
-0.434491 0.713523 0.467037 0 0 0 255 0 0
-0.453699 0.616157 0.45475 0 0 0 255 0 0
-0.472908 0.518791 0.442463 0 0 0 255 0 0
-0.492117 0.421426 0.430176 0 0 0 255 0 0
-0.511325 0.32406 0.417889 0 0 0 255 0 0
-0.530534 0.226695 0.405602 0 0 0 255 0 0
-0.549742 0.129329 0.393315 0 0 0 255 0 0
-0.568951 0.0319633 0.381028 0 0 0 255 0 0
-0.588159 -0.0654023 0.368741 0 0 0 255 0 0
-0.607368 -0.162768 0.356454 0 0 0 255 0 0
-0.626576 -0.260134 0.344168 0 0 0 255 0 0
-0.645785 -0.357499 0.331881 0 0 0 255 0 0
-0.664993 -0.454865 0.319594 0 0 0 255 0 0
-0.201897 1.37592 0.551477 0 0 0 255 0 0
-0.221105 1.27855 0.53919 0 0 0 255 0 0
-0.240314 1.18119 0.526904 0 0 0 255 0 0
-0.259522 1.08382 0.514617 0 0 0 255 0 0
-0.278731 0.986457 0.50233 0 0 0 255 0 0
-0.29794 0.889092 0.490043 0 0 0 255 0 0
-0.317148 0.791726 0.477756 0 0 0 255 0 0
-0.336357 0.69436 0.465469 0 0 0 255 0 0
-0.355565 0.596995 0.453182 0 0 0 255 0 0
-0.374774 0.499629 0.440895 0 0 0 255 0 0
-0.393982 0.402263 0.428608 0 0 0 255 0 0
-0.413191 0.304898 0.416321 0 0 0 255 0 0
-0.432399 0.207532 0.404034 0 0 0 255 0 0
-0.451608 0.110167 0.391747 0 0 0 255 0 0
-0.470816 0.012801 0.37946 0 0 0 255 0 0
-0.490025 -0.0845646 0.367174 0 0 0 255 0 0
-0.509233 -0.18193 0.354887 0 0 0 255 0 0
-0.528442 -0.279296 0.3426 0 0 0 255 0 0
-0.54765 -0.376662 0.330313 0 0 0 255 0 0
-0.566859 -0.474027 0.318026 0 0 0 255 0 0
-0.103763 1.35676 0.549909 0 0 0 255 0 0
-0.122971 1.25939 0.537623 0 0 0 255 0 0
-0.14218 1.16203 0.525336 0 0 0 255 0 0
-0.161388 1.06466 0.513049 0 0 0 255 0 0
-0.180597 0.967295 0.500762 0 0 0 255 0 0
-0.199805 0.869929 0.488475 0 0 0 255 0 0
-0.219014 0.772564 0.476188 0 0 0 255 0 0
-0.238222 0.675198 0.463901 0 0 0 255 0 0
-0.257431 0.577832 0.451614 0 0 0 255 0 0
-0.276639 0.480467 0.439327 0 0 0 255 0 0
-0.295848 0.383101 0.42704 0 0 0 255 0 0
-0.315056 0.285736 0.414753 0 0 0 255 0 0
-0.334265 0.18837 0.402466 0 0 0 255 0 0
-0.353473 0.0910043 0.39018 0 0 0 255 0 0
-0.372682 -0.00636134 0.377893 0 0 0 255 0 0
-0.391891 -0.103727 0.365606 0 0 0 255 0 0
-0.411099 -0.201093 0.353319 0 0 0 255 0 0
-0.430308 -0.298458 0.341032 0 0 0 255 0 0
-0.449516 -0.395824 0.328745 0 0 0 255 0 0
-0.468725 -0.493189 0.316458 0 0 0 255 0 0
-0.00562817 1.3376 0.548342 0 0 0 255 0 0
-0.0248367 1.24023 0.536055 0 0 0 255 0 0
-0.0440453 1.14286 0.523768 0 0 0 255 0 0
-0.0632538 1.0455 0.511481 0 0 0 255 0 0
-0.0824623 0.948133 0.499194 0 0 0 255 0 0
-0.101671 0.850767 0.486907 0 0 0 255 0 0
-0.120879 0.753401 0.47462 0 0 0 255 0 0
-0.140088 0.656036 0.462333 0 0 0 255 0 0
-0.159296 0.55867 0.450046 0 0 0 255 0 0
-0.178505 0.461304 0.437759 0 0 0 255 0 0
-0.197714 0.363939 0.425472 0 0 0 255 0 0
-0.216922 0.266573 0.413186 0 0 0 255 0 0
-0.236131 0.169208 0.400899 0 0 0 255 0 0
-0.255339 0.071842 0.388612 0 0 0 255 0 0
-0.274548 -0.0255237 0.376325 0 0 0 255 0 0
-0.293756 -0.122889 0.364038 0 0 0 255 0 0
-0.312965 -0.220255 0.351751 0 0 0 255 0 0
-0.332173 -0.317621 0.339464 0 0 0 255 0 0
-0.351382 -0.414986 0.327177 0 0 0 255 0 0
-0.37059 -0.512352 0.31489 0 0 0 255 0 0
0.0925062 1.31843 0.546774 0 0 0 255 0 0
0.0732976 1.22107 0.534487 0 0 0 255 0 0
0.0540891 1.1237 0.5222 0 0 0 255 0 0
0.0348805 1.02634 0.509913 0 0 0 255 0 0
0.015672 0.92897 0.497626 0 0 0 255 0 0
-0.00353654 0.831605 0.485339 0 0 0 255 0 0
-0.0227451 0.734239 0.473052 0 0 0 255 0 0
-0.0419536 0.636873 0.460765 0 0 0 255 0 0
-0.0611621 0.539508 0.448478 0 0 0 255 0 0
-0.0803707 0.442142 0.436191 0 0 0 255 0 0
-0.0995792 0.344776 0.423905 0 0 0 255 0 0
-0.118788 0.247411 0.411618 0 0 0 255 0 0
-0.137996 0.150045 0.399331 0 0 0 255 0 0
-0.157205 0.0526796 0.387044 0 0 0 255 0 0
-0.176413 -0.044686 0.374757 0 0 0 255 0 0
-0.195622 -0.142052 0.36247 0 0 0 255 0 0
-0.21483 -0.239417 0.350183 0 0 0 255 0 0
-0.234039 -0.336783 0.337896 0 0 0 255 0 0
-0.253247 -0.434149 0.325609 0 0 0 255 0 0
-0.272456 -0.531514 0.313322 0 0 0 255 0 0
0.19064 1.29927 0.545206 0 0 0 255 0 0
0.171432 1.2019 0.532919 0 0 0 255 0 0
0.152223 1.10454 0.520632 0 0 0 255 0 0
0.133015 1.00717 0.508345 0 0 0 255 0 0
0.113806 0.909808 0.496058 0 0 0 255 0 0
0.0945978 0.812442 0.483771 0 0 0 255 0 0
0.0753893 0.715077 0.471484 0 0 0 255 0 0
0.0561807 0.617711 0.459197 0 0 0 255 0 0
0.0369722 0.520345 0.446911 0 0 0 255 0 0
0.0177637 0.42298 0.434624 0 0 0 255 0 0
-0.00144488 0.325614 0.422337 0 0 0 255 0 0
-0.0206534 0.228249 0.41005 0 0 0 255 0 0
-0.039862 0.130883 0.397763 0 0 0 255 0 0
-0.0590705 0.0335173 0.385476 0 0 0 255 0 0
-0.078279 -0.0638483 0.373189 0 0 0 255 0 0
-0.0974876 -0.161214 0.360902 0 0 0 255 0 0
-0.116696 -0.25858 0.348615 0 0 0 255 0 0
-0.135905 -0.355945 0.336328 0 0 0 255 0 0
-0.155113 -0.453311 0.324041 0 0 0 255 0 0
-0.174322 -0.550676 0.311754 0 0 0 255 0 0
0.288775 1.28011 0.543638 0 0 0 255 0 0
0.269566 1.18274 0.531351 0 0 0 255 0 0
0.250358 1.08538 0.519064 0 0 0 255 0 0
0.231149 0.988011 0.506777 0 0 0 255 0 0
0.211941 0.890646 0.49449 0 0 0 255 0 0
0.192732 0.79328 0.482203 0 0 0 255 0 0
0.173524 0.695914 0.469917 0 0 0 255 0 0
0.154315 0.598549 0.45763 0 0 0 255 0 0
0.135107 0.501183 0.445343 0 0 0 255 0 0
0.115898 0.403817 0.433056 0 0 0 255 0 0
0.0966895 0.306452 0.420769 0 0 0 255 0 0
0.0774809 0.209086 0.408482 0 0 0 255 0 0
0.0582724 0.111721 0.396195 0 0 0 255 0 0
0.0390638 0.0143549 0.383908 0 0 0 255 0 0
0.0198553 -0.0830107 0.371621 0 0 0 255 0 0
0.000646777 -0.180376 0.359334 0 0 0 255 0 0
-0.0185618 -0.277742 0.347047 0 0 0 255 0 0
-0.0377703 -0.375108 0.33476 0 0 0 255 0 0
-0.0569788 -0.472473 0.322474 0 0 0 255 0 0
-0.0761874 -0.569839 0.310187 0 0 0 255 0 0
0.386909 1.26095 0.54207 0 0 0 255 0 0
0.367701 1.16358 0.529783 0 0 0 255 0 0
0.348492 1.06621 0.517496 0 0 0 255 0 0
0.329284 0.968849 0.505209 0 0 0 255 0 0
0.310075 0.871483 0.492923 0 0 0 255 0 0
0.290866 0.774118 0.480636 0 0 0 255 0 0
0.271658 0.676752 0.468349 0 0 0 255 0 0
0.252449 0.579386 0.456062 0 0 0 255 0 0
0.233241 0.482021 0.443775 0 0 0 255 0 0
0.214032 0.384655 0.431488 0 0 0 255 0 0
0.194824 0.28729 0.419201 0 0 0 255 0 0
0.175615 0.189924 0.406914 0 0 0 255 0 0
0.156407 0.0925582 0.394627 0 0 0 255 0 0
0.137198 -0.00480738 0.38234 0 0 0 255 0 0
0.11799 -0.102173 0.370053 0 0 0 255 0 0
0.0987811 -0.199539 0.357766 0 0 0 255 0 0
0.0795726 -0.296904 0.345479 0 0 0 255 0 0
0.060364 -0.39427 0.333193 0 0 0 255 0 0
0.0411555 -0.491636 0.320906 0 0 0 255 0 0
0.021947 -0.589001 0.308619 0 0 0 255 0 0
0.485043 1.24178 0.540502 0 0 0 255 0 0
0.465835 1.14442 0.528215 0 0 0 255 0 0
0.446626 1.04705 0.515929 0 0 0 255 0 0
0.427418 0.949687 0.503642 0 0 0 255 0 0
0.408209 0.852321 0.491355 0 0 0 255 0 0
0.389001 0.754955 0.479068 0 0 0 255 0 0
0.369792 0.65759 0.466781 0 0 0 255 0 0
0.350584 0.560224 0.454494 0 0 0 255 0 0
0.331375 0.462858 0.442207 0 0 0 255 0 0
0.312167 0.365493 0.42992 0 0 0 255 0 0
0.292958 0.268127 0.417633 0 0 0 255 0 0
0.27375 0.170762 0.405346 0 0 0 255 0 0
0.254541 0.0733959 0.393059 0 0 0 255 0 0
0.235333 -0.0239697 0.380772 0 0 0 255 0 0
0.216124 -0.121335 0.368485 0 0 0 255 0 0
0.196915 -0.218701 0.356199 0 0 0 255 0 0
0.177707 -0.316067 0.343912 0 0 0 255 0 0
0.158498 -0.413432 0.331625 0 0 0 255 0 0
0.13929 -0.510798 0.319338 0 0 0 255 0 0
0.120081 -0.608163 0.307051 0 0 0 255 0 0
0.583178 1.22262 0.538934 0 0 0 255 0 0
0.563969 1.12526 0.526648 0 0 0 255 0 0
0.544761 1.02789 0.514361 0 0 0 255 0 0
0.525552 0.930524 0.502074 0 0 0 255 0 0
0.506344 0.833158 0.489787 0 0 0 255 0 0
0.487135 0.735793 0.4775 0 0 0 255 0 0
0.467927 0.638427 0.465213 0 0 0 255 0 0
0.448718 0.541062 0.452926 0 0 0 255 0 0
0.42951 0.443696 0.440639 0 0 0 255 0 0
0.410301 0.34633 0.428352 0 0 0 255 0 0
0.391092 0.248965 0.416065 0 0 0 255 0 0
0.371884 0.151599 0.403778 0 0 0 255 0 0
0.352675 0.0542336 0.391491 0 0 0 255 0 0
0.333467 -0.043132 0.379205 0 0 0 255 0 0
0.314258 -0.140498 0.366918 0 0 0 255 0 0
0.29505 -0.237863 0.354631 0 0 0 255 0 0
0.275841 -0.335229 0.342344 0 0 0 255 0 0
0.256633 -0.432595 0.330057 0 0 0 255 0 0
0.237424 -0.52996 0.31777 0 0 0 255 0 0
0.218216 -0.627326 0.305483 0 0 0 255 0 0
0.681312 1.20346 0.537367 0 0 0 255 0 0
0.662104 1.10609 0.52508 0 0 0 255 0 0
0.642895 1.00873 0.512793 0 0 0 255 0 0
0.623687 0.911362 0.500506 0 0 0 255 0 0
0.604478 0.813996 0.488219 0 0 0 255 0 0
0.585269 0.716631 0.475932 0 0 0 255 0 0
0.566061 0.619265 0.463645 0 0 0 255 0 0
0.546852 0.521899 0.451358 0 0 0 255 0 0
0.527644 0.424534 0.439071 0 0 0 255 0 0
0.508435 0.327168 0.426784 0 0 0 255 0 0
0.489227 0.229802 0.414497 0 0 0 255 0 0
0.470018 0.132437 0.402211 0 0 0 255 0 0
0.45081 0.0350712 0.389924 0 0 0 255 0 0
0.431601 -0.0622944 0.377637 0 0 0 255 0 0
0.412393 -0.15966 0.36535 0 0 0 255 0 0
0.393184 -0.257026 0.353063 0 0 0 255 0 0
0.373976 -0.354391 0.340776 0 0 0 255 0 0
0.354767 -0.451757 0.328489 0 0 0 255 0 0
0.335558 -0.549123 0.316202 0 0 0 255 0 0
0.31635 -0.646488 0.303915 0 0 0 255 0 0
0.779446 1.1843 0.535799 0 0 0 255 0 0
0.760238 1.08693 0.523512 0 0 0 255 0 0
0.741029 0.989565 0.511225 0 0 0 255 0 0
0.721821 0.8922 0.498938 0 0 0 255 0 0
0.702612 0.794834 0.486651 0 0 0 255 0 0
0.683404 0.697468 0.474364 0 0 0 255 0 0
0.664195 0.600103 0.462077 0 0 0 255 0 0
0.644987 0.502737 0.44979 0 0 0 255 0 0
0.625778 0.405371 0.437503 0 0 0 255 0 0
0.60657 0.308006 0.425216 0 0 0 255 0 0
0.587361 0.21064 0.41293 0 0 0 255 0 0
0.568153 0.113275 0.400643 0 0 0 255 0 0
0.548944 0.0159089 0.388356 0 0 0 255 0 0
0.529736 -0.0814567 0.376069 0 0 0 255 0 0
0.510527 -0.178822 0.363782 0 0 0 255 0 0
0.491318 -0.276188 0.351495 0 0 0 255 0 0
0.47211 -0.373554 0.339208 0 0 0 255 0 0
0.452901 -0.470919 0.326921 0 0 0 255 0 0
0.433693 -0.568285 0.314634 0 0 0 255 0 0
0.414484 -0.66565 0.302347 0 0 0 255 0 0
0.877581 1.16513 0.534231 0 0 0 255 0 0
0.858372 1.06777 0.521944 0 0 0 255 0 0
0.839164 0.970403 0.509657 0 0 0 255 0 0
0.819955 0.873037 0.49737 0 0 0 255 0 0
0.800747 0.775672 0.485083 0 0 0 255 0 0
0.781538 0.678306 0.472796 0 0 0 255 0 0
0.76233 0.58094 0.460509 0 0 0 255 0 0
0.743121 0.483575 0.448222 0 0 0 255 0 0
0.723913 0.386209 0.435936 0 0 0 255 0 0
0.704704 0.288843 0.423649 0 0 0 255 0 0
0.685495 0.191478 0.411362 0 0 0 255 0 0
0.666287 0.0941122 0.399075 0 0 0 255 0 0
0.647078 -0.00325343 0.386788 0 0 0 255 0 0
0.62787 -0.100619 0.374501 0 0 0 255 0 0
0.608661 -0.197985 0.362214 0 0 0 255 0 0
0.589453 -0.29535 0.349927 0 0 0 255 0 0
0.570244 -0.392716 0.33764 0 0 0 255 0 0
0.551036 -0.490082 0.325353 0 0 0 255 0 0
0.531827 -0.587447 0.313066 0 0 0 255 0 0
0.512619 -0.684813 0.300779 0 0 0 255 0 0
0.975715 1.14597 0.532663 0 0 0 255 0 0
0.956507 1.04861 0.520376 0 0 0 255 0 0
0.937298 0.951241 0.508089 0 0 0 255 0 0
0.91809 0.853875 0.495802 0 0 0 255 0 0
0.898881 0.756509 0.483515 0 0 0 255 0 0
0.879673 0.659144 0.471228 0 0 0 255 0 0
0.860464 0.561778 0.458942 0 0 0 255 0 0
0.841255 0.464412 0.446655 0 0 0 255 0 0
0.822047 0.367047 0.434368 0 0 0 255 0 0
0.802838 0.269681 0.422081 0 0 0 255 0 0
0.78363 0.172315 0.409794 0 0 0 255 0 0
0.764421 0.0749499 0.397507 0 0 0 255 0 0
0.745213 -0.0224158 0.38522 0 0 0 255 0 0
0.726004 -0.119781 0.372933 0 0 0 255 0 0
0.706796 -0.217147 0.360646 0 0 0 255 0 0
0.687587 -0.314513 0.348359 0 0 0 255 0 0
0.668379 -0.411878 0.336072 0 0 0 255 0 0
0.64917 -0.509244 0.323785 0 0 0 255 0 0
0.629961 -0.60661 0.311499 0 0 0 255 0 0
0.610753 -0.703975 0.299212 0 0 0 255 0 0
1.07385 1.12681 0.531095 0 0 0 255 0 0
1.05464 1.02944 0.518808 0 0 0 255 0 0
1.03543 0.932078 0.506521 0 0 0 255 0 0
1.01622 0.834713 0.494234 0 0 0 255 0 0
0.997015 0.737347 0.481948 0 0 0 255 0 0
0.977807 0.639981 0.469661 0 0 0 255 0 0
0.958598 0.542616 0.457374 0 0 0 255 0 0
0.93939 0.44525 0.445087 0 0 0 255 0 0
0.920181 0.347884 0.4328 0 0 0 255 0 0
0.900973 0.250519 0.420513 0 0 0 255 0 0
0.881764 0.153153 0.408226 0 0 0 255 0 0
0.862556 0.0557875 0.395939 0 0 0 255 0 0
0.843347 -0.0415781 0.383652 0 0 0 255 0 0
0.824139 -0.138944 0.371365 0 0 0 255 0 0
0.80493 -0.236309 0.359078 0 0 0 255 0 0
0.785722 -0.333675 0.346791 0 0 0 255 0 0
0.766513 -0.431041 0.334504 0 0 0 255 0 0
0.747304 -0.528406 0.322218 0 0 0 255 0 0
0.728096 -0.625772 0.309931 0 0 0 255 0 0
0.708887 -0.723138 0.297644 0 0 0 255 0 0
