ply
format ascii 1.0
element vertex 400
property float x
property float y
property float z
property float nx
property float ny
property float nz
property uchar red
property uchar green
property uchar blue
end_header
-1.25594 0.650091 4.19095e-08 0 0 0 128 128 0
-1.16064 0.680383 4.00469e-08 0 0 0 128 128 0
-1.06534 0.710676 2.65427e-08 0 0 0 128 128 0
-0.970034 0.740968 1.6531e-08 0 0 0 128 128 0
-0.874733 0.77126 1.05065e-08 0 0 0 128 128 0
-0.779431 0.801553 2.56114e-09 0 0 0 128 128 0
-0.68413 0.831845 -5.58794e-09 0 0 0 128 128 0
-0.588828 0.862138 -4.28408e-08 0 0 0 128 128 0
-0.493527 0.89243 -4.93601e-08 0 0 0 128 128 0
-0.398225 0.922722 -6.14673e-08 0 0 0 128 128 0
-0.302924 0.953015 -6.51926e-08 0 0 0 128 128 0
-0.207622 0.983307 -7.07805e-08 0 0 0 128 128 0
-0.112321 1.0136 -8.19564e-08 0 0 0 128 128 0
-0.0170193 1.04389 -8.9407e-08 0 0 0 128 128 0
0.0782822 1.07418 -1.2666e-07 0 0 0 128 128 0
0.173584 1.10448 -1.30385e-07 0 0 0 128 128 0
0.268885 1.13477 -1.41561e-07 0 0 0 128 128 0
0.364187 1.16506 -1.49012e-07 0 0 0 128 128 0
0.459488 1.19535 -1.63913e-07 0 0 0 128 128 0
0.55479 1.22565 -1.67638e-07 0 0 0 128 128 0
-1.22565 0.554789 6.33299e-08 0 0 0 128 128 0
-1.13034 0.585082 5.58794e-08 0 0 0 128 128 0
-1.03504 0.615374 4.65661e-08 0 0 0 128 128 0
-0.939742 0.645667 6.51926e-09 0 0 0 128 128 0
-0.84444 0.675959 -1.16415e-09 0 0 0 128 128 0
-0.749139 0.706251 -9.19681e-09 0 0 0 128 128 0
-0.653837 0.736544 -1.72295e-08 0 0 0 128 128 0
-0.558536 0.766836 -2.42144e-08 0 0 0 128 128 0
-0.463234 0.797129 -3.35276e-08 0 0 0 128 128 0
-0.367933 0.827421 -4.00469e-08 0 0 0 128 128 0
-0.272631 0.857713 -4.65661e-08 0 0 0 128 128 0
-0.17733 0.888006 -8.56817e-08 0 0 0 128 128 0
-0.0820284 0.918298 -9.49949e-08 0 0 0 128 128 0
0.0132731 0.94859 -9.87202e-08 0 0 0 128 128 0
0.108575 0.978883 -1.04308e-07 0 0 0 128 128 0
0.203876 1.00918 -1.15484e-07 0 0 0 128 128 0
0.299178 1.03947 -1.22935e-07 0 0 0 128 128 0
0.394479 1.06976 -1.3411e-07 0 0 0 128 128 0
0.489781 1.10005 -1.41561e-07 0 0 0 128 128 0
0.585082 1.13034 -1.78814e-07 0 0 0 128 128 0
-1.19535 0.459488 5.02914e-08 0 0 0 128 128 0
-1.10005 0.48978 4.65661e-08 0 0 0 128 128 0
-1.00475 0.520073 3.44589e-08 0 0 0 128 128 0
-0.909449 0.550365 2.70084e-08 0 0 0 128 128 0
-0.814148 0.580658 1.67638e-08 0 0 0 128 128 0
-0.718846 0.61095 8.84756e-09 0 0 0 128 128 0
-0.623545 0.641242 2.79397e-09 0 0 0 128 128 0
-0.528243 0.671535 -6.0536e-09 0 0 0 128 128 0
-0.432942 0.701827 -4.47035e-08 0 0 0 128 128 0
-0.33764 0.73212 -5.12227e-08 0 0 0 128 128 0
-0.242339 0.762412 -5.96046e-08 0 0 0 128 128 0
-0.147037 0.792704 -6.70552e-08 0 0 0 128 128 0
-0.051736 0.822997 -7.45058e-08 0 0 0 128 128 0
0.0435655 0.853289 -8.00937e-08 0 0 0 128 128 0
0.138867 0.883581 -8.9407e-08 0 0 0 128 128 0
0.234168 0.913874 -9.31323e-08 0 0 0 128 128 0
0.32947 0.944166 -1.08033e-07 0 0 0 128 128 0
0.424771 0.974458 -1.45286e-07 0 0 0 128 128 0
0.520073 1.00475 -1.56462e-07 0 0 0 128 128 0
0.615374 1.03504 -1.56462e-07 0 0 0 128 128 0
-1.16506 0.364187 6.89179e-08 0 0 0 128 128 0
-1.06976 0.394479 6.51926e-08 0 0 0 128 128 0
-0.974458 0.424771 5.40167e-08 0 0 0 128 128 0
-0.879157 0.455064 4.56348e-08 0 0 0 128 128 0
-0.783855 0.485356 3.49246e-08 0 0 0 128 128 0
-0.688554 0.515648 -9.31323e-10 0 0 0 128 128 0
-0.593252 0.545941 -8.93488e-09 0 0 0 128 128 0
-0.497951 0.576233 -1.69966e-08 0 0 0 128 128 0
-0.402649 0.606526 -2.56114e-08 0 0 0 128 128 0
-0.307348 0.636818 -3.25963e-08 0 0 0 128 128 0
-0.212047 0.66711 -3.91155e-08 0 0 0 128 128 0
-0.116745 0.697403 -4.84288e-08 0 0 0 128 128 0
-0.0214436 0.727695 -5.40167e-08 0 0 0 128 128 0
0.0738579 0.757987 -9.31323e-08 0 0 0 128 128 0
0.169159 0.78828 -1.00583e-07 0 0 0 128 128 0
0.264461 0.818572 -1.08033e-07 0 0 0 128 128 0
0.359762 0.848865 -1.19209e-07 0 0 0 128 128 0
0.455064 0.879157 -1.2666e-07 0 0 0 128 128 0
0.550365 0.909449 -1.3411e-07 0 0 0 128 128 0
0.645667 0.939742 -1.41561e-07 0 0 0 128 128 0
-1.13477 0.268885 8.75443e-08 0 0 0 128 128 0
-1.03947 0.299177 5.21541e-08 0 0 0 128 128 0
-0.944166 0.32947 4.19095e-08 0 0 0 128 128 0
-0.848865 0.359762 3.44589e-08 0 0 0 128 128 0
-0.753563 0.390055 2.32831e-08 0 0 0 128 128 0
-0.658262 0.420347 1.81608e-08 0 0 0 128 128 0
-0.56296 0.450639 9.0804e-09 0 0 0 128 128 0
-0.467659 0.480932 1.16415e-09 0 0 0 128 128 0
-0.372357 0.511224 -6.98492e-09 0 0 0 128 128 0
-0.277056 0.541516 -1.39698e-08 0 0 0 128 128 0
-0.181754 0.571809 -5.02914e-08 0 0 0 128 128 0
-0.0864527 0.602101 -5.96046e-08 0 0 0 128 128 0
0.00884878 0.632394 -6.70552e-08 0 0 0 128 128 0
0.10415 0.662686 -7.26432e-08 0 0 0 128 128 0
0.199452 0.692978 -8.19564e-08 0 0 0 128 128 0
0.294753 0.723271 -8.9407e-08 0 0 0 128 128 0
0.390055 0.753563 -1.00583e-07 0 0 0 128 128 0
0.485356 0.783855 -1.3411e-07 0 0 0 128 128 0
0.580658 0.814148 -1.45286e-07 0 0 0 128 128 0
0.675959 0.84444 -1.52737e-07 0 0 0 128 128 0
-1.10448 0.173584 7.63685e-08 0 0 0 128 128 0
-1.00918 0.203876 7.07805e-08 0 0 0 128 128 0
-0.913874 0.234168 5.96046e-08 0 0 0 128 128 0
-0.818572 0.264461 5.30854e-08 0 0 0 128 128 0
-0.723271 0.294753 4.28408e-08 0 0 0 128 128 0
-0.627969 0.325045 3.67872e-08 0 0 0 128 128 0
-0.532668 0.355338 -2.56114e-09 0 0 0 128 128 0
-0.437366 0.38563 -9.63337e-09 0 0 0 128 128 0
-0.342065 0.415923 -1.76951e-08 0 0 0 128 128 0
-0.246763 0.446215 -2.32831e-08 0 0 0 128 128 0
-0.151462 0.476507 -3.25963e-08 0 0 0 128 128 0
-0.0561603 0.5068 -4.00469e-08 0 0 0 128 128 0
0.0391412 0.537092 -4.84288e-08 0 0 0 128 128 0
0.134443 0.567384 -5.40167e-08 0 0 0 128 128 0
0.229744 0.597677 -6.33299e-08 0 0 0 128 128 0
0.325046 0.627969 -1.00583e-07 0 0 0 128 128 0
0.420347 0.658262 -1.11759e-07 0 0 0 128 128 0
0.515649 0.688554 -1.19209e-07 0 0 0 128 128 0
0.61095 0.718846 -1.2666e-07 0 0 0 128 128 0
0.706252 0.749139 -1.3411e-07 0 0 0 128 128 0
-1.07418 0.078282 9.68575e-08 0 0 0 128 128 0
-0.978883 0.108574 8.75443e-08 0 0 0 128 128 0
-0.883581 0.138867 8.00937e-08 0 0 0 128 128 0
-0.78828 0.169159 6.89179e-08 0 0 0 128 128 0
-0.692978 0.199452 3.1665e-08 0 0 0 128 128 0
-0.597677 0.229744 2.42144e-08 0 0 0 128 128 0
-0.502375 0.260036 1.53668e-08 0 0 0 128 128 0
-0.407074 0.290329 8.3819e-09 0 0 0 128 128 0
-0.311772 0.320621 -4.65661e-10 0 0 0 128 128 0
-0.216471 0.350913 -6.51926e-09 0 0 0 128 128 0
-0.121169 0.381206 -1.39698e-08 0 0 0 128 128 0
-0.0258679 0.411498 -5.21541e-08 0 0 0 128 128 0
0.0694335 0.441791 -5.96046e-08 0 0 0 128 128 0
0.164735 0.472083 -6.70552e-08 0 0 0 128 128 0
0.260036 0.502375 -7.45058e-08 0 0 0 128 128 0
0.355338 0.532668 -8.19564e-08 0 0 0 128 128 0
0.450639 0.56296 -8.9407e-08 0 0 0 128 128 0
0.545941 0.593252 -1.00583e-07 0 0 0 128 128 0
0.641243 0.623545 -1.11759e-07 0 0 0 128 128 0
0.736544 0.653837 -1.15484e-07 0 0 0 128 128 0
-1.04389 -0.0170194 8.56817e-08 0 0 0 128 128 0
-0.94859 0.013273 7.45058e-08 0 0 0 128 128 0
-0.853289 0.0435653 6.89179e-08 0 0 0 128 128 0
-0.757987 0.0738577 5.96046e-08 0 0 0 128 128 0
-0.662686 0.10415 5.02914e-08 0 0 0 128 128 0
-0.567384 0.134442 4.37722e-08 0 0 0 128 128 0
-0.472083 0.164735 3.3062e-08 0 0 0 128 128 0
-0.376781 0.195027 2.56114e-08 0 0 0 128 128 0
-0.28148 0.22532 -1.22236e-08 0 0 0 128 128 0
-0.186179 0.255612 -1.88593e-08 0 0 0 128 128 0
-0.090877 0.285904 -2.56114e-08 0 0 0 128 128 0
0.00442443 0.316197 -3.44589e-08 0 0 0 128 128 0
0.0997259 0.346489 -4.19095e-08 0 0 0 128 128 0
0.195027 0.376782 -5.02914e-08 0 0 0 128 128 0
0.290329 0.407074 -5.58794e-08 0 0 0 128 128 0
0.38563 0.437366 -6.33299e-08 0 0 0 128 128 0
0.480932 0.467659 -1.02445e-07 0 0 0 128 128 0
0.576233 0.497951 -1.09896e-07 0 0 0 128 128 0
0.671535 0.528243 -1.22935e-07 0 0 0 128 128 0
0.766836 0.558536 -1.2666e-07 0 0 0 128 128 0
-1.0136 -0.112321 1.00583e-07 0 0 0 128 128 0
-0.918298 -0.0820285 9.31323e-08 0 0 0 128 128 0
-0.822996 -0.0517361 8.75443e-08 0 0 0 128 128 0
-0.727695 -0.0214437 8.00937e-08 0 0 0 128 128 0
-0.632394 0.00884864 6.70552e-08 0 0 0 128 128 0
-0.537092 0.039141 3.1665e-08 0 0 0 128 128 0
-0.441791 0.0694334 2.14204e-08 0 0 0 128 128 0
-0.346489 0.0997258 1.49012e-08 0 0 0 128 128 0
-0.251188 0.130018 8.14907e-09 0 0 0 128 128 0
-0.155886 0.160311 -2.32831e-10 0 0 0 128 128 0
-0.0605847 0.190603 -8.3819e-09 0 0 0 128 128 0
0.0347168 0.220895 -1.53668e-08 0 0 0 128 128 0
0.130018 0.251188 -2.42144e-08 0 0 0 128 128 0
0.22532 0.28148 -6.14673e-08 0 0 0 128 128 0
0.320621 0.311772 -6.70552e-08 0 0 0 128 128 0
0.415923 0.342065 -7.63685e-08 0 0 0 128 128 0
0.511224 0.372357 -8.3819e-08 0 0 0 128 128 0
0.606526 0.40265 -9.12696e-08 0 0 0 128 128 0
0.701827 0.432942 -1.04308e-07 0 0 0 128 128 0
0.797129 0.463234 -1.08033e-07 0 0 0 128 128 0
-0.983307 -0.207622 1.22935e-07 0 0 0 128 128 0
-0.888006 -0.17733 1.13621e-07 0 0 0 128 128 0
-0.792704 -0.147038 7.45058e-08 0 0 0 128 128 0
-0.697403 -0.116745 6.70552e-08 0 0 0 128 128 0
-0.602101 -0.0864528 5.58794e-08 0 0 0 128 128 0
-0.5068 -0.0561605 4.93601e-08 0 0 0 128 128 0
-0.411498 -0.0258681 4.00469e-08 0 0 0 128 128 0
-0.316197 0.0044243 3.1665e-08 0 0 0 128 128 0
-0.220895 0.0347167 2.6077e-08 0 0 0 128 128 0
-0.125594 0.0650091 1.82772e-08 0 0 0 128 128 0
-0.0302923 0.0953014 -1.90921e-08 0 0 0 128 128 0
0.0650092 0.125594 -2.7474e-08 0 0 0 128 128 0
0.160311 0.155886 -3.44589e-08 0 0 0 128 128 0
0.255612 0.186179 -4.37722e-08 0 0 0 128 128 0
0.350914 0.216471 -5.02914e-08 0 0 0 128 128 0
0.446215 0.246763 -5.96046e-08 0 0 0 128 128 0
0.541517 0.277056 -6.51926e-08 0 0 0 128 128 0
0.636818 0.307348 -7.45058e-08 0 0 0 128 128 0
0.73212 0.33764 -8.56817e-08 0 0 0 128 128 0
0.827421 0.367933 -1.19209e-07 0 0 0 128 128 0
-0.953015 -0.302924 1.08033e-07 0 0 0 128 128 0
-0.857713 -0.272631 1.00583e-07 0 0 0 128 128 0
-0.762412 -0.242339 9.12696e-08 0 0 0 128 128 0
-0.66711 -0.212047 8.56817e-08 0 0 0 128 128 0
-0.571809 -0.181754 7.63685e-08 0 0 0 128 128 0
-0.476507 -0.151462 6.70552e-08 0 0 0 128 128 0
-0.381206 -0.12117 6.0536e-08 0 0 0 128 128 0
-0.285904 -0.0908772 2.32831e-08 0 0 0 128 128 0
-0.190603 -0.0605848 1.44355e-08 0 0 0 128 128 0
-0.0953014 -0.0302924 6.75209e-09 0 0 0 128 128 0
9.53523e-08 -4.95289e-08 -1.07136e-09 0 0 0 128 128 0
0.0953016 0.0302923 -8.84756e-09 0 0 0 128 128 0
0.190603 0.0605847 -1.67638e-08 0 0 0 128 128 0
0.285905 0.0908771 -2.42144e-08 0 0 0 128 128 0
0.381206 0.121169 -6.14673e-08 0 0 0 128 128 0
0.476507 0.151462 -6.89179e-08 0 0 0 128 128 0
0.571809 0.181754 -7.82311e-08 0 0 0 128 128 0
0.66711 0.212047 -8.56817e-08 0 0 0 128 128 0
0.762412 0.242339 -9.31323e-08 0 0 0 128 128 0
0.857713 0.272631 -1.02445e-07 0 0 0 128 128 0
-0.922722 -0.398225 1.2666e-07 0 0 0 128 128 0
-0.827421 -0.367933 1.19209e-07 0 0 0 128 128 0
-0.732119 -0.337641 1.11759e-07 0 0 0 128 128 0
-0.636818 -0.307348 7.45058e-08 0 0 0 128 128 0
-0.541516 -0.277056 6.33299e-08 0 0 0 128 128 0
-0.446215 -0.246763 5.58794e-08 0 0 0 128 128 0
-0.350913 -0.216471 4.84288e-08 0 0 0 128 128 0
-0.255612 -0.186179 4.09782e-08 0 0 0 128 128 0
-0.16031 -0.155886 3.25963e-08 0 0 0 128 128 0
-0.065009 -0.125594 2.51457e-08 0 0 0 128 128 0
0.0302925 -0.0953015 1.74623e-08 0 0 0 128 128 0
0.125594 -0.0650092 9.42964e-09 0 0 0 128 128 0
0.220895 -0.0347168 -2.79397e-08 0 0 0 128 128 0
0.316197 -0.00442439 -3.53903e-08 0 0 0 128 128 0
0.411498 0.025868 -4.47035e-08 0 0 0 128 128 0
0.5068 0.0561604 -5.21541e-08 0 0 0 128 128 0
0.602101 0.0864528 -5.96046e-08 0 0 0 128 128 0
0.697403 0.116745 -6.70552e-08 0 0 0 128 128 0
0.792704 0.147038 -7.82311e-08 0 0 0 128 128 0
0.888006 0.17733 -8.56817e-08 0 0 0 128 128 0
-0.89243 -0.493527 1.15484e-07 0 0 0 128 128 0
-0.797128 -0.463234 1.08033e-07 0 0 0 128 128 0
-0.701827 -0.432942 1.00583e-07 0 0 0 128 128 0
-0.606525 -0.40265 9.12696e-08 0 0 0 128 128 0
-0.511224 -0.372357 8.19564e-08 0 0 0 128 128 0
-0.415923 -0.342065 7.45058e-08 0 0 0 128 128 0
-0.320621 -0.311773 6.51926e-08 0 0 0 128 128 0
-0.22532 -0.28148 5.86733e-08 0 0 0 128 128 0
-0.130018 -0.251188 2.14204e-08 0 0 0 128 128 0
-0.0347166 -0.220895 1.44355e-08 0 0 0 128 128 0
0.0605849 -0.190603 5.58794e-09 0 0 0 128 128 0
0.155886 -0.160311 -2.09548e-09 0 0 0 128 128 0
0.251188 -0.130018 -1.00117e-08 0 0 0 128 128 0
0.346489 -0.0997259 -1.76951e-08 0 0 0 128 128 0
0.441791 -0.0694335 -2.51457e-08 0 0 0 128 128 0
0.537092 -0.0391411 -3.44589e-08 0 0 0 128 128 0
0.632394 -0.00884873 -4.09782e-08 0 0 0 128 128 0
0.727695 0.0214437 -7.82311e-08 0 0 0 128 128 0
0.822997 0.051736 -8.9407e-08 0 0 0 128 128 0
0.918298 0.0820284 -9.49949e-08 0 0 0 128 128 0
-0.862138 -0.588828 1.37836e-07 0 0 0 128 128 0
-0.766836 -0.558536 1.2666e-07 0 0 0 128 128 0
-0.671535 -0.528244 1.19209e-07 0 0 0 128 128 0
-0.576233 -0.497951 1.09896e-07 0 0 0 128 128 0
-0.480932 -0.467659 1.00583e-07 0 0 0 128 128 0
-0.38563 -0.437366 9.31323e-08 0 0 0 128 128 0
-0.290329 -0.407074 5.58794e-08 0 0 0 128 128 0
-0.195027 -0.376782 4.84288e-08 0 0 0 128 128 0
-0.0997258 -0.346489 4.00469e-08 0 0 0 128 128 0
-0.00442424 -0.316197 3.25963e-08 0 0 0 128 128 0
0.0908772 -0.285904 2.42144e-08 0 0 0 128 128 0
0.186179 -0.255612 1.60653e-08 0 0 0 128 128 0
0.28148 -0.22532 8.49832e-09 0 0 0 128 128 0
0.376782 -0.195027 -2.8871e-08 0 0 0 128 128 0
0.472083 -0.164735 -3.72529e-08 0 0 0 128 128 0
0.567385 -0.134443 -4.47035e-08 0 0 0 128 128 0
0.662686 -0.10415 -5.30854e-08 0 0 0 128 128 0
0.757988 -0.0738578 -6.14673e-08 0 0 0 128 128 0
0.853289 -0.0435654 -7.07805e-08 0 0 0 128 128 0
0.948591 -0.0132731 -7.63685e-08 0 0 0 128 128 0
-0.831845 -0.68413 1.52737e-07 0 0 0 128 128 0
-0.736544 -0.653837 1.15484e-07 0 0 0 128 128 0
-0.641242 -0.623545 1.08033e-07 0 0 0 128 128 0
-0.545941 -0.593253 9.68575e-08 0 0 0 128 128 0
-0.450639 -0.56296 8.75443e-08 0 0 0 128 128 0
-0.355338 -0.532668 8.00937e-08 0 0 0 128 128 0
-0.260036 -0.502375 7.26432e-08 0 0 0 128 128 0
-0.164735 -0.472083 6.70552e-08 0 0 0 128 128 0
-0.0694333 -0.441791 5.86733e-08 0 0 0 128 128 0
0.0258681 -0.411498 4.93601e-08 0 0 0 128 128 0
0.12117 -0.381206 1.30385e-08 0 0 0 128 128 0
0.216471 -0.350914 3.72529e-09 0 0 0 128 128 0
0.311773 -0.320621 -3.25963e-09 0 0 0 128 128 0
0.407074 -0.290329 -1.11759e-08 0 0 0 128 128 0
0.502376 -0.260036 -2.00234e-08 0 0 0 128 128 0
0.597677 -0.229744 -2.51457e-08 0 0 0 128 128 0
0.692978 -0.199452 -3.53903e-08 0 0 0 128 128 0
0.78828 -0.169159 -4.28408e-08 0 0 0 128 128 0
0.883581 -0.138867 -8.00937e-08 0 0 0 128 128 0
0.978883 -0.108575 -9.12696e-08 0 0 0 128 128 0
-0.801553 -0.779431 1.41561e-07 0 0 0 128 128 0
-0.706251 -0.749139 1.3411e-07 0 0 0 128 128 0
-0.61095 -0.718846 1.22935e-07 0 0 0 128 128 0
-0.515648 -0.688554 1.11759e-07 0 0 0 128 128 0
-0.420347 -0.658262 1.08033e-07 0 0 0 128 128 0
-0.325045 -0.627969 1.00583e-07 0 0 0 128 128 0
-0.229744 -0.597677 9.31323e-08 0 0 0 128 128 0
-0.134442 -0.567385 5.21541e-08 0 0 0 128 128 0
-0.039141 -0.537092 4.65661e-08 0 0 0 128 128 0
0.0561605 -0.5068 3.81842e-08 0 0 0 128 128 0
0.151462 -0.476507 3.07336e-08 0 0 0 128 128 0
0.246763 -0.446215 2.23517e-08 0 0 0 128 128 0
0.342065 -0.415923 1.49012e-08 0 0 0 128 128 0
0.437366 -0.38563 5.90808e-09 0 0 0 128 128 0
0.532668 -0.355338 -1.16415e-09 0 0 0 128 128 0
0.627969 -0.325045 -3.77186e-08 0 0 0 128 128 0
0.723271 -0.294753 -4.56348e-08 0 0 0 128 128 0
0.818572 -0.264461 -5.4948e-08 0 0 0 128 128 0
0.913874 -0.234168 -6.51926e-08 0 0 0 128 128 0
1.00918 -0.203876 -7.26432e-08 0 0 0 128 128 0
-0.77126 -0.874733 1.56462e-07 0 0 0 128 128 0
-0.675959 -0.84444 1.49012e-07 0 0 0 128 128 0
-0.580657 -0.814148 1.41561e-07 0 0 0 128 128 0
-0.485356 -0.783856 1.3411e-07 0 0 0 128 128 0
-0.390054 -0.753563 1.2666e-07 0 0 0 128 128 0
-0.294753 -0.723271 8.9407e-08 0 0 0 128 128 0
-0.199452 -0.692978 8.00937e-08 0 0 0 128 128 0
-0.10415 -0.662686 7.45058e-08 0 0 0 128 128 0
-0.00884858 -0.632394 6.51926e-08 0 0 0 128 128 0
0.0864529 -0.602101 5.58794e-08 0 0 0 128 128 0
0.181754 -0.571809 5.02914e-08 0 0 0 128 128 0
0.277056 -0.541517 4.19095e-08 0 0 0 128 128 0
0.372357 -0.511224 4.19095e-09 0 0 0 128 128 0
0.467659 -0.480932 -3.95812e-09 0 0 0 128 128 0
0.56296 -0.450639 -1.18744e-08 0 0 0 128 128 0
0.658262 -0.420347 -1.90921e-08 0 0 0 128 128 0
0.753563 -0.390055 -2.70084e-08 0 0 0 128 128 0
0.848865 -0.359762 -3.53903e-08 0 0 0 128 128 0
0.944166 -0.32947 -4.47035e-08 0 0 0 128 128 0
1.03947 -0.299177 -5.21541e-08 0 0 0 128 128 0
-0.740968 -0.970034 1.49012e-07 0 0 0 128 128 0
-0.645667 -0.939742 1.41561e-07 0 0 0 128 128 0
-0.550365 -0.909449 1.3411e-07 0 0 0 128 128 0
-0.455064 -0.879157 1.2666e-07 0 0 0 128 128 0
-0.359762 -0.848865 1.15484e-07 0 0 0 128 128 0
-0.264461 -0.818572 1.08033e-07 0 0 0 128 128 0
-0.169159 -0.78828 9.87202e-08 0 0 0 128 128 0
-0.0738577 -0.757988 9.31323e-08 0 0 0 128 128 0
0.0214438 -0.727695 8.19564e-08 0 0 0 128 128 0
0.116745 -0.697403 4.47035e-08 0 0 0 128 128 0
0.212047 -0.66711 3.91155e-08 0 0 0 128 128 0
0.307348 -0.636818 3.07336e-08 0 0 0 128 128 0
0.40265 -0.606526 2.09548e-08 0 0 0 128 128 0
0.497951 -0.576233 1.60653e-08 0 0 0 128 128 0
0.593253 -0.545941 7.07223e-09 0 0 0 128 128 0
0.688554 -0.515648 -9.31323e-10 0 0 0 128 128 0
0.783856 -0.485356 -9.77889e-09 0 0 0 128 128 0
0.879157 -0.455064 -4.65661e-08 0 0 0 128 128 0
0.974459 -0.424771 -5.58794e-08 0 0 0 128 128 0
1.06976 -0.394479 -6.51926e-08 0 0 0 128 128 0
-0.710676 -1.06534 1.63913e-07 0 0 0 128 128 0
-0.615374 -1.03504 1.60187e-07 0 0 0 128 128 0
-0.520073 -1.00475 1.49012e-07 0 0 0 128 128 0
-0.424771 -0.974459 1.41561e-07 0 0 0 128 128 0
-0.32947 -0.944166 1.3411e-07 0 0 0 128 128 0
-0.234168 -0.913874 9.31323e-08 0 0 0 128 128 0
-0.138867 -0.883581 8.9407e-08 0 0 0 128 128 0
-0.0435653 -0.853289 8.00937e-08 0 0 0 128 128 0
0.0517362 -0.822997 7.26432e-08 0 0 0 128 128 0
0.147038 -0.792704 6.33299e-08 0 0 0 128 128 0
0.242339 -0.762412 5.96046e-08 0 0 0 128 128 0
0.337641 -0.73212 4.93601e-08 0 0 0 128 128 0
0.432942 -0.701827 4.00469e-08 0 0 0 128 128 0
0.528244 -0.671535 4.19095e-09 0 0 0 128 128 0
0.623545 -0.641242 -4.65661e-09 0 0 0 128 128 0
0.718846 -0.61095 -1.07102e-08 0 0 0 128 128 0
0.814148 -0.580658 -2.04891e-08 0 0 0 128 128 0
0.909449 -0.550365 -2.8871e-08 0 0 0 128 128 0
1.00475 -0.520073 -3.81842e-08 0 0 0 128 128 0
1.10005 -0.489781 -4.47035e-08 0 0 0 128 128 0
-0.680383 -1.16064 1.86265e-07 0 0 0 128 128 0
-0.585082 -1.13034 1.78814e-07 0 0 0 128 128 0
-0.48978 -1.10005 1.71363e-07 0 0 0 128 128 0
-0.394479 -1.06976 1.3411e-07 0 0 0 128 128 0
-0.299177 -1.03947 1.19209e-07 0 0 0 128 128 0
-0.203876 -1.00918 1.11759e-07 0 0 0 128 128 0
-0.108574 -0.978883 1.08033e-07 0 0 0 128 128 0
-0.0132729 -0.948591 9.87202e-08 0 0 0 128 128 0
0.0820286 -0.918298 9.12696e-08 0 0 0 128 128 0
0.17733 -0.888006 8.3819e-08 0 0 0 128 128 0
0.272632 -0.857713 4.65661e-08 0 0 0 128 128 0
0.367933 -0.827421 3.72529e-08 0 0 0 128 128 0
0.463234 -0.797129 3.07336e-08 0 0 0 128 128 0
0.558536 -0.766836 2.32831e-08 0 0 0 128 128 0
0.653837 -0.736544 1.35042e-08 0 0 0 128 128 0
0.749139 -0.706252 7.33417e-09 0 0 0 128 128 0
0.84444 -0.675959 -2.56114e-09 0 0 0 128 128 0
0.939742 -0.645667 -1.02445e-08 0 0 0 128 128 0
1.03504 -0.615374 -1.86265e-08 0 0 0 128 128 0
1.13034 -0.585082 -5.40167e-08 0 0 0 128 128 0
