ply
format ascii 1.0
element vertex 400
property float x
property float y
property float z
property float nx
property float ny
property float nz
property uchar red
property uchar green
property uchar blue
end_header
-0.544801 1.30506 0 0 0 0 128 128 0
-0.452307 1.26705 -2.23517e-08 0 0 0 128 128 0
-0.359814 1.22904 -7.45058e-09 0 0 0 128 128 0
-0.267321 1.19103 7.45058e-09 0 0 0 128 128 0
-0.174827 1.15301 7.45058e-09 0 0 0 128 128 0
-0.0823342 1.115 1.49012e-08 0 0 0 128 128 0
0.0101591 1.07699 1.49012e-08 0 0 0 128 128 0
0.102652 1.03897 0 0 0 0 128 128 0
0.195146 1.00096 0 0 0 0 128 128 0
0.287639 0.962946 0 0 0 0 128 128 0
0.380132 0.924932 4.47035e-08 0 0 0 128 128 0
0.472625 0.886919 2.98023e-08 0 0 0 128 128 0
0.565118 0.848906 2.98023e-08 0 0 0 128 128 0
0.657612 0.810893 2.98023e-08 0 0 0 128 128 0
0.750105 0.77288 0 0 0 0 128 128 0
0.842598 0.734866 2.98023e-08 0 0 0 128 128 0
0.935091 0.696853 5.96046e-08 0 0 0 128 128 0
1.02758 0.65884 2.98023e-08 0 0 0 128 128 0
1.12008 0.620827 2.98023e-08 0 0 0 128 128 0
1.21257 0.582813 2.98023e-08 0 0 0 128 128 0
-0.582814 1.21257 -7.45058e-09 0 0 0 128 128 0
-0.49032 1.17456 -1.11759e-08 0 0 0 128 128 0
-0.397827 1.13655 -1.11759e-08 0 0 0 128 128 0
-0.305334 1.09853 -1.49012e-08 0 0 0 128 128 0
-0.212841 1.06052 0 0 0 0 128 128 0
-0.120347 1.02251 7.45058e-09 0 0 0 128 128 0
-0.0278542 0.984492 -1.49012e-08 0 0 0 128 128 0
0.0646391 0.946479 1.49012e-08 0 0 0 128 128 0
0.157132 0.908466 -1.49012e-08 0 0 0 128 128 0
0.249626 0.870452 1.49012e-08 0 0 0 128 128 0
0.342119 0.832439 2.98023e-08 0 0 0 128 128 0
0.434612 0.794426 1.49012e-08 0 0 0 128 128 0
0.527105 0.756413 1.49012e-08 0 0 0 128 128 0
0.619599 0.7184 2.98023e-08 0 0 0 128 128 0
0.712092 0.680386 2.98023e-08 0 0 0 128 128 0
0.804585 0.642373 2.98023e-08 0 0 0 128 128 0
0.897078 0.60436 2.98023e-08 0 0 0 128 128 0
0.989572 0.566347 2.98023e-08 0 0 0 128 128 0
1.08206 0.528333 2.98023e-08 0 0 0 128 128 0
1.17456 0.49032 2.98023e-08 0 0 0 128 128 0
-0.620827 1.12008 -1.35042e-08 0 0 0 128 128 0
-0.528334 1.08206 1.30385e-08 0 0 0 128 128 0
-0.43584 1.04405 -1.86265e-08 0 0 0 128 128 0
-0.343347 1.00604 -3.72529e-08 0 0 0 128 128 0
-0.250854 0.968025 0 0 0 0 128 128 0
-0.158361 0.930012 2.23517e-08 0 0 0 128 128 0
-0.0658674 0.891999 -7.45058e-09 0 0 0 128 128 0
0.0266259 0.853986 1.49012e-08 0 0 0 128 128 0
0.119119 0.815972 0 0 0 0 128 128 0
0.211612 0.777959 1.49012e-08 0 0 0 128 128 0
0.304106 0.739946 0 0 0 0 128 128 0
0.396599 0.701933 0 0 0 0 128 128 0
0.489092 0.663919 1.49012e-08 0 0 0 128 128 0
0.581585 0.625906 0 0 0 0 128 128 0
0.674079 0.587893 2.98023e-08 0 0 0 128 128 0
0.766572 0.54988 5.96046e-08 0 0 0 128 128 0
0.859065 0.511867 0 0 0 0 128 128 0
0.951558 0.473853 2.98023e-08 0 0 0 128 128 0
1.04405 0.43584 0 0 0 0 128 128 0
1.13654 0.397827 0 0 0 0 128 128 0
-0.65884 1.02758 9.31323e-09 0 0 0 128 128 0
-0.566347 0.989572 2.09548e-08 0 0 0 128 128 0
-0.473853 0.951558 -2.51457e-08 0 0 0 128 128 0
-0.38136 0.913545 -7.45058e-09 0 0 0 128 128 0
-0.288867 0.875532 -2.98023e-08 0 0 0 128 128 0
-0.196374 0.837519 0 0 0 0 128 128 0
-0.103881 0.799506 7.45058e-09 0 0 0 128 128 0
-0.0113873 0.761492 -1.49012e-08 0 0 0 128 128 0
0.0811059 0.723479 0 0 0 0 128 128 0
0.173599 0.685466 0 0 0 0 128 128 0
0.266092 0.647453 1.49012e-08 0 0 0 128 128 0
0.358586 0.609439 0 0 0 0 128 128 0
0.451079 0.571426 0 0 0 0 128 128 0
0.543572 0.533413 1.49012e-08 0 0 0 128 128 0
0.636065 0.4954 0 0 0 0 128 128 0
0.728559 0.457387 0 0 0 0 128 128 0
0.821052 0.419373 2.98023e-08 0 0 0 128 128 0
0.913545 0.38136 2.98023e-08 0 0 0 128 128 0
1.00604 0.343347 0 0 0 0 128 128 0
1.09853 0.305334 2.98023e-08 0 0 0 128 128 0
-0.696853 0.935092 1.86265e-08 0 0 0 128 128 0
-0.60436 0.897078 2.23517e-08 0 0 0 128 128 0
-0.511867 0.859065 -1.86265e-09 0 0 0 128 128 0
-0.419374 0.821052 3.91155e-08 0 0 0 128 128 0
-0.32688 0.783039 -7.45058e-09 0 0 0 128 128 0
-0.234387 0.745026 -1.49012e-08 0 0 0 128 128 0
-0.141894 0.707012 0 0 0 0 128 128 0
-0.0494005 0.668999 1.49012e-08 0 0 0 128 128 0
0.0430927 0.630986 0 0 0 0 128 128 0
0.135586 0.592973 2.23517e-08 0 0 0 128 128 0
0.228079 0.554959 1.49012e-08 0 0 0 128 128 0
0.320572 0.516946 1.49012e-08 0 0 0 128 128 0
0.413066 0.478933 1.49012e-08 0 0 0 128 128 0
0.505559 0.44092 1.49012e-08 0 0 0 128 128 0
0.598052 0.402906 4.47035e-08 0 0 0 128 128 0
0.690545 0.364893 2.98023e-08 0 0 0 128 128 0
0.783039 0.32688 2.98023e-08 0 0 0 128 128 0
0.875532 0.288867 2.98023e-08 0 0 0 128 128 0
0.968025 0.250854 2.98023e-08 0 0 0 128 128 0
1.06052 0.21284 2.98023e-08 0 0 0 128 128 0
-0.734867 0.842598 0 0 0 0 128 128 0
-0.642373 0.804585 -3.72529e-09 0 0 0 128 128 0
-0.54988 0.766572 -7.45058e-09 0 0 0 128 128 0
-0.457387 0.728559 1.86265e-08 0 0 0 128 128 0
-0.364893 0.690545 8.3819e-09 0 0 0 128 128 0
-0.2724 0.652532 -7.45058e-09 0 0 0 128 128 0
-0.179907 0.614519 3.72529e-09 0 0 0 128 128 0
-0.0874137 0.576506 -1.11759e-08 0 0 0 128 128 0
0.00507949 0.538493 2.23517e-08 0 0 0 128 128 0
0.0975728 0.500479 7.45058e-09 0 0 0 128 128 0
0.190066 0.462466 1.49012e-08 0 0 0 128 128 0
0.282559 0.424453 -1.49012e-08 0 0 0 128 128 0
0.375052 0.38644 1.49012e-08 0 0 0 128 128 0
0.467546 0.348426 2.98023e-08 0 0 0 128 128 0
0.560039 0.310413 1.49012e-08 0 0 0 128 128 0
0.652532 0.2724 1.49012e-08 0 0 0 128 128 0
0.745025 0.234387 2.98023e-08 0 0 0 128 128 0
0.837519 0.196374 1.49012e-08 0 0 0 128 128 0
0.930012 0.15836 2.98023e-08 0 0 0 128 128 0
1.02251 0.120347 0 0 0 0 128 128 0
-0.77288 0.750105 -4.47035e-08 0 0 0 128 128 0
-0.680386 0.712092 -3.72529e-08 0 0 0 128 128 0
-0.587893 0.674079 -1.49012e-08 0 0 0 128 128 0
-0.4954 0.636065 -7.45058e-09 0 0 0 128 128 0
-0.402907 0.598052 -1.11759e-08 0 0 0 128 128 0
-0.310413 0.560039 -7.50879e-09 0 0 0 128 128 0
-0.21792 0.522026 -9.31323e-09 0 0 0 128 128 0
-0.125427 0.484013 7.45058e-09 0 0 0 128 128 0
-0.0329336 0.445999 -1.11759e-08 0 0 0 128 128 0
0.0595596 0.407986 7.45058e-09 0 0 0 128 128 0
0.152053 0.369973 2.23517e-08 0 0 0 128 128 0
0.244546 0.33196 0 0 0 0 128 128 0
0.337039 0.293946 0 0 0 0 128 128 0
0.429532 0.255933 0 0 0 0 128 128 0
0.522026 0.21792 1.49012e-08 0 0 0 128 128 0
0.614519 0.179907 2.98023e-08 0 0 0 128 128 0
0.707012 0.141894 1.49012e-08 0 0 0 128 128 0
0.799506 0.10388 2.98023e-08 0 0 0 128 128 0
0.891999 0.0658671 0 0 0 0 128 128 0
0.984492 0.0278538 2.98023e-08 0 0 0 128 128 0
-0.810893 0.657612 -1.49012e-08 0 0 0 128 128 0
-0.7184 0.619599 -7.45058e-09 0 0 0 128 128 0
-0.625906 0.581585 7.45058e-09 0 0 0 128 128 0
-0.533413 0.543572 -1.11759e-08 0 0 0 128 128 0
-0.44092 0.505559 -7.45058e-09 0 0 0 128 128 0
-0.348427 0.467546 -2.04891e-08 0 0 0 128 128 0
-0.255933 0.429533 -9.31323e-10 0 0 0 128 128 0
-0.16344 0.391519 -9.31323e-10 0 0 0 128 128 0
-0.0709469 0.353506 -3.72529e-09 0 0 0 128 128 0
0.0215464 0.315493 1.49012e-08 0 0 0 128 128 0
0.11404 0.27748 0 0 0 0 128 128 0
0.206533 0.239466 7.45058e-09 0 0 0 128 128 0
0.299026 0.201453 2.23517e-08 0 0 0 128 128 0
0.391519 0.16344 1.49012e-08 0 0 0 128 128 0
0.484013 0.125427 -1.49012e-08 0 0 0 128 128 0
0.576506 0.0874135 0 0 0 0 128 128 0
0.668999 0.0494003 1.49012e-08 0 0 0 128 128 0
0.761492 0.0113871 2.98023e-08 0 0 0 128 128 0
0.853986 -0.0266261 0 0 0 0 128 128 0
0.946479 -0.0646394 0 0 0 0 128 128 0
-0.848906 0.565119 0 0 0 0 128 128 0
-0.756413 0.527105 7.45058e-09 0 0 0 128 128 0
-0.663919 0.489092 -2.23517e-08 0 0 0 128 128 0
-0.571426 0.451079 0 0 0 0 128 128 0
-0.478933 0.413066 -2.23517e-08 0 0 0 128 128 0
-0.38644 0.375053 3.72529e-09 0 0 0 128 128 0
-0.293947 0.337039 -1.86265e-08 0 0 0 128 128 0
-0.201453 0.299026 -1.86265e-09 0 0 0 128 128 0
-0.10896 0.261013 1.30385e-08 0 0 0 128 128 0
-0.0164668 0.223 -1.86265e-09 0 0 0 128 128 0
0.0760264 0.184986 3.72529e-09 0 0 0 128 128 0
0.16852 0.146973 -1.49012e-08 0 0 0 128 128 0
0.261013 0.10896 7.45058e-09 0 0 0 128 128 0
0.353506 0.0709467 2.23517e-08 0 0 0 128 128 0
0.445999 0.0329335 7.45058e-09 0 0 0 128 128 0
0.538493 -0.00507972 1.49012e-08 0 0 0 128 128 0
0.630986 -0.043093 0 0 0 0 128 128 0
0.723479 -0.0811062 1.49012e-08 0 0 0 128 128 0
0.815972 -0.119119 1.49012e-08 0 0 0 128 128 0
0.908466 -0.157133 2.98023e-08 0 0 0 128 128 0
-0.886919 0.472625 1.49012e-08 0 0 0 128 128 0
-0.794426 0.434612 4.47035e-08 0 0 0 128 128 0
-0.701933 0.396599 -2.98023e-08 0 0 0 128 128 0
-0.609439 0.358586 -7.45058e-09 0 0 0 128 128 0
-0.516946 0.320572 0 0 0 0 128 128 0
-0.424453 0.282559 0 0 0 0 128 128 0
-0.33196 0.244546 -1.11759e-08 0 0 0 128 128 0
-0.239466 0.206533 7.45058e-09 0 0 0 128 128 0
-0.146973 0.16852 -9.31323e-09 0 0 0 128 128 0
-0.05448 0.130506 6.51926e-09 0 0 0 128 128 0
0.0380132 0.0924932 -5.58794e-09 0 0 0 128 128 0
0.130506 0.0544799 0 0 0 0 128 128 0
0.223 0.0164667 -1.11759e-08 0 0 0 128 128 0
0.315493 -0.0215465 0 0 0 0 128 128 0
0.407986 -0.0595597 1.49012e-08 0 0 0 128 128 0
0.500479 -0.097573 3.72529e-08 0 0 0 128 128 0
0.592973 -0.135586 1.49012e-08 0 0 0 128 128 0
0.685466 -0.173599 1.49012e-08 0 0 0 128 128 0
0.777959 -0.211613 1.49012e-08 0 0 0 128 128 0
0.870453 -0.249626 2.98023e-08 0 0 0 128 128 0
-0.924932 0.380132 2.98023e-08 0 0 0 128 128 0
-0.832439 0.342119 0 0 0 0 128 128 0
-0.739946 0.304106 1.49012e-08 0 0 0 128 128 0
-0.647453 0.266093 2.98023e-08 0 0 0 128 128 0
-0.554959 0.228079 -2.98023e-08 0 0 0 128 128 0
-0.462466 0.190066 -7.45058e-09 0 0 0 128 128 0
-0.369973 0.152053 7.45058e-09 0 0 0 128 128 0
-0.27748 0.11404 -1.11759e-08 0 0 0 128 128 0
-0.184986 0.0760264 3.72529e-09 0 0 0 128 128 0
-0.0924932 0.0380131 -9.31323e-09 0 0 0 128 128 0
4.38431e-08 -9.8059e-08 2.92122e-09 0 0 0 128 128 0
0.0924933 -0.0380133 1.49012e-08 0 0 0 128 128 0
0.184987 -0.0760265 0 0 0 0 128 128 0
0.27748 -0.11404 1.86265e-08 0 0 0 128 128 0
0.369973 -0.152053 7.45058e-09 0 0 0 128 128 0
0.462466 -0.190066 1.49012e-08 0 0 0 128 128 0
0.554959 -0.228079 2.98023e-08 0 0 0 128 128 0
0.647453 -0.266093 2.98023e-08 0 0 0 128 128 0
0.739946 -0.304106 1.49012e-08 0 0 0 128 128 0
0.832439 -0.342119 1.49012e-08 0 0 0 128 128 0
-0.962946 0.287639 -1.49012e-08 0 0 0 128 128 0
-0.870452 0.249626 -1.49012e-08 0 0 0 128 128 0
-0.777959 0.211612 0 0 0 0 128 128 0
-0.685466 0.173599 1.49012e-08 0 0 0 128 128 0
-0.592973 0.135586 1.49012e-08 0 0 0 128 128 0
-0.500479 0.0975728 -2.23517e-08 0 0 0 128 128 0
-0.407986 0.0595595 -7.45058e-09 0 0 0 128 128 0
-0.315493 0.0215463 7.45058e-09 0 0 0 128 128 0
-0.223 -0.0164669 -7.45058e-09 0 0 0 128 128 0
-0.130506 -0.0544801 3.72529e-09 0 0 0 128 128 0
-0.0380132 -0.0924934 -1.11759e-08 0 0 0 128 128 0
0.0544801 -0.130507 -9.31323e-10 0 0 0 128 128 0
0.146973 -0.16852 1.67638e-08 0 0 0 128 128 0
0.239467 -0.206533 0 0 0 0 128 128 0
0.33196 -0.244546 1.49012e-08 0 0 0 128 128 0
0.424453 -0.282559 0 0 0 0 128 128 0
0.516946 -0.320573 1.49012e-08 0 0 0 128 128 0
0.60944 -0.358586 1.49012e-08 0 0 0 128 128 0
0.701933 -0.396599 2.98023e-08 0 0 0 128 128 0
0.794426 -0.434612 2.98023e-08 0 0 0 128 128 0
-1.00096 0.195146 -4.47035e-08 0 0 0 128 128 0
-0.908466 0.157132 -1.49012e-08 0 0 0 128 128 0
-0.815972 0.119119 -1.49012e-08 0 0 0 128 128 0
-0.723479 0.081106 -1.49012e-08 0 0 0 128 128 0
-0.630986 0.0430927 0 0 0 0 128 128 0
-0.538493 0.0050795 1.49012e-08 0 0 0 128 128 0
-0.445999 -0.0329337 2.98023e-08 0 0 0 128 128 0
-0.353506 -0.070947 -2.23517e-08 0 0 0 128 128 0
-0.261013 -0.10896 7.45058e-09 0 0 0 128 128 0
-0.16852 -0.146973 2.23517e-08 0 0 0 128 128 0
-0.0760264 -0.184987 -3.72529e-09 0 0 0 128 128 0
0.0164669 -0.223 1.30385e-08 0 0 0 128 128 0
0.10896 -0.261013 -1.86265e-09 0 0 0 128 128 0
0.201453 -0.299026 1.30385e-08 0 0 0 128 128 0
0.293947 -0.33704 -3.72529e-09 0 0 0 128 128 0
0.38644 -0.375053 1.11759e-08 0 0 0 128 128 0
0.478933 -0.413066 1.49012e-08 0 0 0 128 128 0
0.571426 -0.451079 -7.45058e-09 0 0 0 128 128 0
0.66392 -0.489092 1.49012e-08 0 0 0 128 128 0
0.756413 -0.527106 7.45058e-09 0 0 0 128 128 0
-1.03897 0.102652 -5.96046e-08 0 0 0 128 128 0
-0.946479 0.0646393 -4.47035e-08 0 0 0 128 128 0
-0.853985 0.026626 -4.47035e-08 0 0 0 128 128 0
-0.761492 -0.0113873 -2.98023e-08 0 0 0 128 128 0
-0.668999 -0.0494005 -1.49012e-08 0 0 0 128 128 0
-0.576506 -0.0874137 0 0 0 0 128 128 0
-0.484012 -0.125427 0 0 0 0 128 128 0
-0.391519 -0.16344 1.49012e-08 0 0 0 128 128 0
-0.299026 -0.201453 -1.49012e-08 0 0 0 128 128 0
-0.206533 -0.239467 -7.45058e-09 0 0 0 128 128 0
-0.11404 -0.27748 7.45058e-09 0 0 0 128 128 0
-0.0215463 -0.315493 -1.11759e-08 0 0 0 128 128 0
0.070947 -0.353506 0 0 0 0 128 128 0
0.16344 -0.391519 -2.79397e-09 0 0 0 128 128 0
0.255933 -0.429533 9.31323e-10 0 0 0 128 128 0
0.348427 -0.467546 1.67638e-08 0 0 0 128 128 0
0.44092 -0.505559 0 0 0 0 128 128 0
0.533413 -0.543572 0 0 0 0 128 128 0
0.625906 -0.581586 -7.45058e-09 0 0 0 128 128 0
0.7184 -0.619599 -7.45058e-09 0 0 0 128 128 0
-1.07699 0.0101592 0 0 0 0 128 128 0
-0.984492 -0.027854 0 0 0 0 128 128 0
-0.891999 -0.0658673 -5.96046e-08 0 0 0 128 128 0
-0.799505 -0.103881 -4.47035e-08 0 0 0 128 128 0
-0.707012 -0.141894 -4.47035e-08 0 0 0 128 128 0
-0.614519 -0.179907 -2.98023e-08 0 0 0 128 128 0
-0.522026 -0.21792 -1.49012e-08 0 0 0 128 128 0
-0.429532 -0.255933 0 0 0 0 128 128 0
-0.337039 -0.293947 2.98023e-08 0 0 0 128 128 0
-0.244546 -0.33196 -2.23517e-08 0 0 0 128 128 0
-0.152053 -0.369973 -7.45058e-09 0 0 0 128 128 0
-0.0595595 -0.407986 7.45058e-09 0 0 0 128 128 0
0.0329338 -0.446 1.49012e-08 0 0 0 128 128 0
0.125427 -0.484013 0 0 0 0 128 128 0
0.21792 -0.522026 -1.11759e-08 0 0 0 128 128 0
0.310413 -0.560039 7.50879e-09 0 0 0 128 128 0
0.402907 -0.598052 1.11759e-08 0 0 0 128 128 0
0.4954 -0.636066 1.49012e-08 0 0 0 128 128 0
0.587893 -0.674079 0 0 0 0 128 128 0
0.680386 -0.712092 2.23517e-08 0 0 0 128 128 0
-1.115 -0.082334 -2.98023e-08 0 0 0 128 128 0
-1.02251 -0.120347 0 0 0 0 128 128 0
-0.930012 -0.158361 -2.98023e-08 0 0 0 128 128 0
-0.837519 -0.196374 -1.49012e-08 0 0 0 128 128 0
-0.745025 -0.234387 -4.47035e-08 0 0 0 128 128 0
-0.652532 -0.2724 -2.98023e-08 0 0 0 128 128 0
-0.560039 -0.310413 -2.98023e-08 0 0 0 128 128 0
-0.467546 -0.348427 -2.98023e-08 0 0 0 128 128 0
-0.375052 -0.38644 0 0 0 0 128 128 0
-0.282559 -0.424453 1.49012e-08 0 0 0 128 128 0
-0.190066 -0.462466 -2.23517e-08 0 0 0 128 128 0
-0.0975727 -0.50048 -7.45058e-09 0 0 0 128 128 0
-0.00507943 -0.538493 -7.45058e-09 0 0 0 128 128 0
0.0874138 -0.576506 1.49012e-08 0 0 0 128 128 0
0.179907 -0.614519 -3.72529e-09 0 0 0 128 128 0
0.2724 -0.652532 1.49012e-08 0 0 0 128 128 0
0.364894 -0.690546 -9.31323e-10 0 0 0 128 128 0
0.457387 -0.728559 3.72529e-09 0 0 0 128 128 0
0.54988 -0.766572 1.49012e-08 0 0 0 128 128 0
0.642373 -0.804585 1.11759e-08 0 0 0 128 128 0
-1.15301 -0.174827 -5.96046e-08 0 0 0 128 128 0
-1.06052 -0.212841 -5.96046e-08 0 0 0 128 128 0
-0.968025 -0.250854 -5.96046e-08 0 0 0 128 128 0
-0.875532 -0.288867 -2.98023e-08 0 0 0 128 128 0
-0.783039 -0.32688 -2.98023e-08 0 0 0 128 128 0
-0.690545 -0.364893 -4.47035e-08 0 0 0 128 128 0
-0.598052 -0.402907 -4.47035e-08 0 0 0 128 128 0
-0.505559 -0.44092 -4.47035e-08 0 0 0 128 128 0
-0.413066 -0.478933 -1.49012e-08 0 0 0 128 128 0
-0.320572 -0.516946 1.49012e-08 0 0 0 128 128 0
-0.228079 -0.55496 0 0 0 0 128 128 0
-0.135586 -0.592973 -3.72529e-08 0 0 0 128 128 0
-0.0430926 -0.630986 -2.23517e-08 0 0 0 128 128 0
0.0494006 -0.668999 -1.49012e-08 0 0 0 128 128 0
0.141894 -0.707012 -1.49012e-08 0 0 0 128 128 0
0.234387 -0.745026 3.72529e-09 0 0 0 128 128 0
0.32688 -0.783039 0 0 0 0 128 128 0
0.419374 -0.821052 -2.42144e-08 0 0 0 128 128 0
0.511867 -0.859065 -1.30385e-08 0 0 0 128 128 0
0.60436 -0.897079 0 0 0 0 128 128 0
-1.19102 -0.267321 0 0 0 0 128 128 0
-1.09853 -0.305334 0 0 0 0 128 128 0
-1.00604 -0.343347 -2.98023e-08 0 0 0 128 128 0
-0.913545 -0.38136 -2.98023e-08 0 0 0 128 128 0
-0.821052 -0.419374 0 0 0 0 128 128 0
-0.728558 -0.457387 0 0 0 0 128 128 0
-0.636065 -0.4954 -4.47035e-08 0 0 0 128 128 0
-0.543572 -0.533413 -2.98023e-08 0 0 0 128 128 0
-0.451079 -0.571426 -2.98023e-08 0 0 0 128 128 0
-0.358586 -0.60944 0 0 0 0 128 128 0
-0.266092 -0.647453 1.49012e-08 0 0 0 128 128 0
-0.173599 -0.685466 1.49012e-08 0 0 0 128 128 0
-0.0811058 -0.723479 2.98023e-08 0 0 0 128 128 0
0.0113874 -0.761493 -7.45058e-09 0 0 0 128 128 0
0.103881 -0.799506 2.23517e-08 0 0 0 128 128 0
0.196374 -0.837519 1.49012e-08 0 0 0 128 128 0
0.288867 -0.875532 7.45058e-09 0 0 0 128 128 0
0.38136 -0.913545 1.49012e-08 0 0 0 128 128 0
0.473854 -0.951559 -1.76951e-08 0 0 0 128 128 0
0.566347 -0.989572 -6.0536e-09 0 0 0 128 128 0
-1.22904 -0.359814 -2.98023e-08 0 0 0 128 128 0
-1.13654 -0.397827 0 0 0 0 128 128 0
-1.04405 -0.43584 0 0 0 0 128 128 0
-0.951558 -0.473854 0 0 0 0 128 128 0
-0.859065 -0.511867 -2.98023e-08 0 0 0 128 128 0
-0.766572 -0.54988 -2.98023e-08 0 0 0 128 128 0
-0.674078 -0.587893 0 0 0 0 128 128 0
-0.581585 -0.625906 -5.96046e-08 0 0 0 128 128 0
-0.489092 -0.66392 -4.47035e-08 0 0 0 128 128 0
-0.396599 -0.701933 0 0 0 0 128 128 0
-0.304106 -0.739946 0 0 0 0 128 128 0
-0.211612 -0.777959 0 0 0 0 128 128 0
-0.119119 -0.815973 1.49012e-08 0 0 0 128 128 0
-0.0266258 -0.853986 1.49012e-08 0 0 0 128 128 0
0.0658674 -0.891999 -7.45058e-09 0 0 0 128 128 0
0.158361 -0.930012 1.49012e-08 0 0 0 128 128 0
0.250854 -0.968026 7.45058e-09 0 0 0 128 128 0
0.343347 -1.00604 2.23517e-08 0 0 0 128 128 0
0.43584 -1.04405 3.72529e-09 0 0 0 128 128 0
0.528334 -1.08207 1.86265e-09 0 0 0 128 128 0
-1.26705 -0.452307 -2.98023e-08 0 0 0 128 128 0
-1.17456 -0.49032 -2.98023e-08 0 0 0 128 128 0
-1.08206 -0.528334 -2.98023e-08 0 0 0 128 128 0
-0.989571 -0.566347 0 0 0 0 128 128 0
-0.897078 -0.60436 -5.96046e-08 0 0 0 128 128 0
-0.804585 -0.642373 -2.98023e-08 0 0 0 128 128 0
-0.712092 -0.680387 -2.98023e-08 0 0 0 128 128 0
-0.619598 -0.7184 -8.9407e-08 0 0 0 128 128 0
-0.527105 -0.756413 -5.96046e-08 0 0 0 128 128 0
-0.434612 -0.794426 -4.47035e-08 0 0 0 128 128 0
-0.342119 -0.832439 -1.49012e-08 0 0 0 128 128 0
-0.249625 -0.870453 -1.49012e-08 0 0 0 128 128 0
-0.157132 -0.908466 0 0 0 0 128 128 0
-0.064639 -0.946479 1.49012e-08 0 0 0 128 128 0
0.0278542 -0.984492 -1.49012e-08 0 0 0 128 128 0
0.120348 -1.02251 -1.49012e-08 0 0 0 128 128 0
0.212841 -1.06052 7.45058e-09 0 0 0 128 128 0
0.305334 -1.09853 -1.49012e-08 0 0 0 128 128 0
0.397827 -1.13655 -1.49012e-08 0 0 0 128 128 0
0.490321 -1.17456 -1.86265e-08 0 0 0 128 128 0
