ply
format ascii 1.0
element vertex 400
property float x
property float y
property float z
property float nx
property float ny
property float nz
property uchar red
property uchar green
property uchar blue
end_header
-1.25595 0.650063 -2.38419e-07 0 0 0 128 128 0
-1.16065 0.680357 -1.78814e-07 0 0 0 128 128 0
-1.06535 0.710652 -1.23866e-07 0 0 0 128 128 0
-0.970051 0.740946 -6.47269e-08 0 0 0 128 128 0
-0.87475 0.771241 -9.54606e-09 0 0 0 128 128 0
-0.77945 0.801535 4.95929e-08 0 0 0 128 128 0
-0.684149 0.83183 1.04774e-07 0 0 0 128 128 0
-0.588848 0.862124 1.65775e-07 0 0 0 128 128 0
-0.493547 0.892419 2.20723e-07 0 0 0 128 128 0
-0.398246 0.922714 2.79397e-07 0 0 0 128 128 0
-0.302945 0.953008 3.37139e-07 0 0 0 128 128 0
-0.207645 0.983302 3.94881e-07 0 0 0 128 128 0
-0.112344 1.0136 4.48897e-07 0 0 0 128 128 0
-0.0170431 1.04389 5.08502e-07 0 0 0 128 128 0
0.0782577 1.07419 5.36442e-07 0 0 0 128 128 0
0.173559 1.10448 6.22123e-07 0 0 0 128 128 0
0.268859 1.13478 6.51926e-07 0 0 0 128 128 0
0.36416 1.16507 7.07805e-07 0 0 0 128 128 0
0.459461 1.19536 7.63685e-07 0 0 0 128 128 0
0.554762 1.22566 8.19564e-07 0 0 0 128 128 0
-1.22566 0.554762 -2.57045e-07 0 0 0 128 128 0
-1.13036 0.585056 -2.02097e-07 0 0 0 128 128 0
-1.03506 0.615351 -1.47149e-07 0 0 0 128 128 0
-0.939757 0.645645 -8.75443e-08 0 0 0 128 128 0
-0.844456 0.67594 -3.23635e-08 0 0 0 128 128 0
-0.749155 0.706235 2.65427e-08 0 0 0 128 128 0
-0.653854 0.736529 8.19564e-08 0 0 0 128 128 0
-0.558553 0.766824 1.1269e-07 0 0 0 128 128 0
-0.463253 0.797118 1.72295e-07 0 0 0 128 128 0
-0.367952 0.827413 2.28174e-07 0 0 0 128 128 0
-0.272651 0.857707 2.86847e-07 0 0 0 128 128 0
-0.17735 0.888002 3.42727e-07 0 0 0 128 128 0
-0.0820493 0.918296 4.00469e-07 0 0 0 128 128 0
0.0132515 0.948591 4.58211e-07 0 0 0 128 128 0
0.108552 0.978885 5.17815e-07 0 0 0 128 128 0
0.203853 1.00918 5.7742e-07 0 0 0 128 128 0
0.299154 1.03947 6.29574e-07 0 0 0 128 128 0
0.394455 1.06977 6.85453e-07 0 0 0 128 128 0
0.489755 1.10006 7.45058e-07 0 0 0 128 128 0
0.585056 1.13036 8.04663e-07 0 0 0 128 128 0
-1.19536 0.459461 -3.09199e-07 0 0 0 128 128 0
-1.10006 0.489755 -2.51457e-07 0 0 0 128 128 0
-1.00476 0.52005 -1.95578e-07 0 0 0 128 128 0
-0.909462 0.550345 -1.4063e-07 0 0 0 128 128 0
-0.814161 0.580639 -8.14907e-08 0 0 0 128 128 0
-0.71886 0.610934 -2.61934e-08 0 0 0 128 128 0
-0.62356 0.641228 3.46918e-08 0 0 0 128 128 0
-0.528259 0.671523 9.35979e-08 0 0 0 128 128 0
-0.432958 0.701817 1.49943e-07 0 0 0 128 128 0
-0.337657 0.732112 2.07685e-07 0 0 0 128 128 0
-0.242356 0.762406 2.64496e-07 0 0 0 128 128 0
-0.147056 0.792701 3.22238e-07 0 0 0 128 128 0
-0.0517548 0.822995 3.7998e-07 0 0 0 128 128 0
0.043546 0.85329 4.37722e-07 0 0 0 128 128 0
0.138847 0.883584 4.95464e-07 0 0 0 128 128 0
0.234148 0.913879 5.51343e-07 0 0 0 128 128 0
0.329448 0.944174 6.07222e-07 0 0 0 128 128 0
0.424749 0.974468 6.63102e-07 0 0 0 128 128 0
0.52005 1.00476 7.22706e-07 0 0 0 128 128 0
0.615351 1.03506 7.78586e-07 0 0 0 128 128 0
-1.16507 0.36416 -3.27826e-07 0 0 0 128 128 0
-1.06977 0.394455 -2.73809e-07 0 0 0 128 128 0
-0.974468 0.424749 -2.18861e-07 0 0 0 128 128 0
-0.879167 0.455044 -1.59256e-07 0 0 0 128 128 0
-0.783867 0.485338 -1.02445e-07 0 0 0 128 128 0
-0.688566 0.515633 -4.35393e-08 0 0 0 128 128 0
-0.593265 0.545927 1.18162e-08 0 0 0 128 128 0
-0.497964 0.576222 7.17118e-08 0 0 0 128 128 0
-0.402663 0.606516 1.28988e-07 0 0 0 128 128 0
-0.307363 0.636811 1.86265e-07 0 0 0 128 128 0
-0.212062 0.667105 2.43075e-07 0 0 0 128 128 0
-0.116761 0.6974 3.01749e-07 0 0 0 128 128 0
-0.0214602 0.727695 3.27826e-07 0 0 0 128 128 0
0.0738406 0.757989 3.85568e-07 0 0 0 128 128 0
0.169141 0.788284 4.45172e-07 0 0 0 128 128 0
0.264442 0.818578 4.99189e-07 0 0 0 128 128 0
0.359743 0.848873 5.55068e-07 0 0 0 128 128 0
0.455044 0.879167 6.14673e-07 0 0 0 128 128 0
0.550345 0.909462 6.74278e-07 0 0 0 128 128 0
0.645645 0.939756 7.30157e-07 0 0 0 128 128 0
-1.13478 0.268859 -3.5204e-07 0 0 0 128 128 0
-1.03947 0.299154 -2.96161e-07 0 0 0 128 128 0
-0.944174 0.329448 -2.35625e-07 0 0 0 128 128 0
-0.848873 0.359743 -1.78814e-07 0 0 0 128 128 0
-0.753572 0.390037 -1.20141e-07 0 0 0 128 128 0
-0.658271 0.420332 -9.45292e-08 0 0 0 128 128 0
-0.562971 0.450627 -3.71365e-08 0 0 0 128 128 0
-0.46767 0.480921 1.90921e-08 0 0 0 128 128 0
-0.372369 0.511216 7.63685e-08 0 0 0 128 128 0
-0.277068 0.54151 1.3411e-07 0 0 0 128 128 0
-0.181767 0.571805 1.92784e-07 0 0 0 128 128 0
-0.0864664 0.602099 2.50526e-07 0 0 0 128 128 0
0.00883437 0.632394 3.07336e-07 0 0 0 128 128 0
0.104135 0.662688 3.65078e-07 0 0 0 128 128 0
0.199436 0.692983 4.2282e-07 0 0 0 128 128 0
0.294737 0.723277 4.76837e-07 0 0 0 128 128 0
0.390038 0.753572 5.36442e-07 0 0 0 128 128 0
0.485338 0.783866 5.96046e-07 0 0 0 128 128 0
0.580639 0.814161 6.51926e-07 0 0 0 128 128 0
0.67594 0.844456 7.0408e-07 0 0 0 128 128 0
-1.10448 0.173559 -4.04194e-07 0 0 0 128 128 0
-1.00918 0.203853 -3.46452e-07 0 0 0 128 128 0
-0.913879 0.234148 -2.90573e-07 0 0 0 128 128 0
-0.818578 0.264442 -2.30968e-07 0 0 0 128 128 0
-0.723278 0.294737 -1.75089e-07 0 0 0 128 128 0
-0.627977 0.325031 -1.16415e-07 0 0 0 128 128 0
-0.532676 0.355326 -6.1933e-08 0 0 0 128 128 0
-0.437375 0.38562 -1.97906e-09 0 0 0 128 128 0
-0.342074 0.415915 5.42495e-08 0 0 0 128 128 0
-0.246773 0.446209 1.1269e-07 0 0 0 128 128 0
-0.151473 0.476504 1.69501e-07 0 0 0 128 128 0
-0.0561719 0.506799 2.26311e-07 0 0 0 128 128 0
0.0391289 0.537093 2.84985e-07 0 0 0 128 128 0
0.13443 0.567388 3.40864e-07 0 0 0 128 128 0
0.229731 0.597682 3.98606e-07 0 0 0 128 128 0
0.325031 0.627977 4.58211e-07 0 0 0 128 128 0
0.420332 0.658271 5.1409e-07 0 0 0 128 128 0
0.515633 0.688566 5.43892e-07 0 0 0 128 128 0
0.610934 0.71886 6.29574e-07 0 0 0 128 128 0
0.706235 0.749155 6.51926e-07 0 0 0 128 128 0
-1.07419 0.0782577 -4.26546e-07 0 0 0 128 128 0
-0.978885 0.108552 -3.68804e-07 0 0 0 128 128 0
-0.883584 0.138847 -3.12924e-07 0 0 0 128 128 0
-0.788284 0.169141 -2.55182e-07 0 0 0 128 128 0
-0.692983 0.199436 -1.99303e-07 0 0 0 128 128 0
-0.597682 0.22973 -1.39698e-07 0 0 0 128 128 0
-0.502381 0.260025 -8.3819e-08 0 0 0 128 128 0
-0.407081 0.29032 -2.67755e-08 0 0 0 128 128 0
-0.31178 0.320614 3.2247e-08 0 0 0 128 128 0
-0.216479 0.350909 8.9407e-08 0 0 0 128 128 0
-0.121178 0.381203 1.16415e-07 0 0 0 128 128 0
-0.0258773 0.411498 1.75089e-07 0 0 0 128 128 0
0.0694235 0.441792 2.32831e-07 0 0 0 128 128 0
0.164724 0.472087 2.90573e-07 0 0 0 128 128 0
0.260025 0.502381 3.50177e-07 0 0 0 128 128 0
0.355326 0.532676 4.06057e-07 0 0 0 128 128 0
0.450627 0.56297 4.60073e-07 0 0 0 128 128 0
0.545928 0.593265 5.21541e-07 0 0 0 128 128 0
0.641228 0.623559 5.7742e-07 0 0 0 128 128 0
0.736529 0.653854 6.33299e-07 0 0 0 128 128 0
-1.04389 -0.0170431 -4.47035e-07 0 0 0 128 128 0
-0.948591 0.0132515 -4.17233e-07 0 0 0 128 128 0
-0.85329 0.043546 -3.33413e-07 0 0 0 128 128 0
-0.757989 0.0738405 -3.07336e-07 0 0 0 128 128 0
-0.662688 0.104135 -2.48663e-07 0 0 0 128 128 0
-0.567388 0.13443 -1.93715e-07 0 0 0 128 128 0
-0.472087 0.164724 -1.34576e-07 0 0 0 128 128 0
-0.376786 0.195019 -7.68341e-08 0 0 0 128 128 0
-0.281485 0.225313 -1.94996e-08 0 0 0 128 128 0
-0.186184 0.255608 3.72529e-08 0 0 0 128 128 0
-0.0908836 0.285902 9.49949e-08 0 0 0 128 128 0
0.00441723 0.316197 1.52737e-07 0 0 0 128 128 0
0.099718 0.346491 2.10479e-07 0 0 0 128 128 0
0.195019 0.376786 2.68221e-07 0 0 0 128 128 0
0.29032 0.40708 3.27826e-07 0 0 0 128 128 0
0.38562 0.437375 3.81842e-07 0 0 0 128 128 0
0.480921 0.46767 4.37722e-07 0 0 0 128 128 0
0.576222 0.497964 4.97326e-07 0 0 0 128 128 0
0.671523 0.528259 5.51343e-07 0 0 0 128 128 0
0.766824 0.558553 6.07222e-07 0 0 0 128 128 0
-1.0136 -0.112344 -4.97326e-07 0 0 0 128 128 0
-0.918296 -0.0820493 -4.4331e-07 0 0 0 128 128 0
-0.822995 -0.0517548 -3.8743e-07 0 0 0 128 128 0
-0.727695 -0.0214602 -3.27826e-07 0 0 0 128 128 0
-0.632394 0.00883432 -2.73809e-07 0 0 0 128 128 0
-0.537093 0.0391288 -2.14204e-07 0 0 0 128 128 0
-0.441792 0.0694234 -1.58325e-07 0 0 0 128 128 0
-0.346491 0.0997179 -9.96515e-08 0 0 0 128 128 0
-0.251191 0.130012 -4.23752e-08 0 0 0 128 128 0
-0.15589 0.160307 1.61235e-08 0 0 0 128 128 0
-0.060589 0.190602 7.26432e-08 0 0 0 128 128 0
0.0347118 0.220896 1.29919e-07 0 0 0 128 128 0
0.130013 0.251191 1.88127e-07 0 0 0 128 128 0
0.225313 0.281485 2.44938e-07 0 0 0 128 128 0
0.320614 0.31178 3.01749e-07 0 0 0 128 128 0
0.415915 0.342074 3.29688e-07 0 0 0 128 128 0
0.511216 0.372369 4.1537e-07 0 0 0 128 128 0
0.606517 0.402663 4.4331e-07 0 0 0 128 128 0
0.701817 0.432958 5.02914e-07 0 0 0 128 128 0
0.797118 0.463252 5.58794e-07 0 0 0 128 128 0
-0.983303 -0.207645 -5.21541e-07 0 0 0 128 128 0
-0.888002 -0.17735 -4.63799e-07 0 0 0 128 128 0
-0.792701 -0.147056 -4.07919e-07 0 0 0 128 128 0
-0.6974 -0.116761 -3.53903e-07 0 0 0 128 128 0
-0.602099 -0.0864665 -2.94298e-07 0 0 0 128 128 0
-0.506799 -0.0561719 -2.36556e-07 0 0 0 128 128 0
-0.411498 -0.0258774 -1.78814e-07 0 0 0 128 128 0
-0.316197 0.00441713 -1.22003e-07 0 0 0 128 128 0
-0.220896 0.0347117 -9.40636e-08 0 0 0 128 128 0
-0.125595 0.0650062 -3.63216e-08 0 0 0 128 128 0
-0.0302945 0.0953008 2.07219e-08 0 0 0 128 128 0
0.0650063 0.125595 7.82311e-08 0 0 0 128 128 0
0.160307 0.15589 1.35042e-07 0 0 0 128 128 0
0.255608 0.186184 1.94646e-07 0 0 0 128 128 0
0.350909 0.216479 2.51457e-07 0 0 0 128 128 0
0.44621 0.246773 3.11062e-07 0 0 0 128 128 0
0.54151 0.277068 3.65078e-07 0 0 0 128 128 0
0.636811 0.307362 4.24683e-07 0 0 0 128 128 0
0.732112 0.337657 4.80562e-07 0 0 0 128 128 0
0.827413 0.367952 5.36442e-07 0 0 0 128 128 0
-0.953008 -0.302945 -5.40167e-07 0 0 0 128 128 0
-0.857707 -0.272651 -5.15953e-07 0 0 0 128 128 0
-0.762406 -0.242356 -4.60073e-07 0 0 0 128 128 0
-0.667106 -0.212062 -4.02331e-07 0 0 0 128 128 0
-0.571805 -0.181767 -3.44589e-07 0 0 0 128 128 0
-0.476504 -0.151473 -2.86847e-07 0 0 0 128 128 0
-0.381203 -0.121178 -2.30968e-07 0 0 0 128 128 0
-0.285902 -0.0908837 -1.72295e-07 0 0 0 128 128 0
-0.190602 -0.0605891 -1.15484e-07 0 0 0 128 128 0
-0.0953007 -0.0302946 -5.84405e-08 0 0 0 128 128 0
9.53534e-08 -4.95269e-08 -1.07141e-09 0 0 0 128 128 0
0.0953009 0.0302945 5.61122e-08 0 0 0 128 128 0
0.190602 0.060589 1.14087e-07 0 0 0 128 128 0
0.285902 0.0908836 1.72295e-07 0 0 0 128 128 0
0.381203 0.121178 2.30037e-07 0 0 0 128 128 0
0.476504 0.151473 2.86847e-07 0 0 0 128 128 0
0.571805 0.181767 3.44589e-07 0 0 0 128 128 0
0.667106 0.212062 4.02331e-07 0 0 0 128 128 0
0.762406 0.242356 4.60073e-07 0 0 0 128 128 0
0.857707 0.272651 5.15953e-07 0 0 0 128 128 0
-0.922713 -0.398246 -5.96046e-07 0 0 0 128 128 0
-0.827413 -0.367952 -5.36442e-07 0 0 0 128 128 0
-0.732112 -0.337657 -4.82425e-07 0 0 0 128 128 0
-0.636811 -0.307363 -4.2282e-07 0 0 0 128 128 0
-0.54151 -0.277068 -3.65078e-07 0 0 0 128 128 0
-0.446209 -0.246774 -3.11062e-07 0 0 0 128 128 0
-0.350909 -0.216479 -2.5332e-07 0 0 0 128 128 0
-0.255608 -0.186184 -1.95578e-07 0 0 0 128 128 0
-0.160307 -0.15589 -1.37836e-07 0 0 0 128 128 0
-0.0650061 -0.125595 -8.05594e-08 0 0 0 128 128 0
0.0302946 -0.0953009 -2.28174e-08 0 0 0 128 128 0
0.125595 -0.0650063 3.44589e-08 0 0 0 128 128 0
0.220896 -0.0347118 9.22009e-08 0 0 0 128 128 0
0.316197 -0.00441723 1.49943e-07 0 0 0 128 128 0
0.411498 0.0258773 1.77883e-07 0 0 0 128 128 0
0.506799 0.0561718 2.34693e-07 0 0 0 128 128 0
0.602099 0.0864664 2.92435e-07 0 0 0 128 128 0
0.6974 0.116761 3.5204e-07 0 0 0 128 128 0
0.792701 0.147055 4.06057e-07 0 0 0 128 128 0
0.888002 0.17735 4.61936e-07 0 0 0 128 128 0
-0.892419 -0.493547 -6.18398e-07 0 0 0 128 128 0
-0.797118 -0.463253 -5.58794e-07 0 0 0 128 128 0
-0.701817 -0.432958 -5.02914e-07 0 0 0 128 128 0
-0.606516 -0.402663 -4.47035e-07 0 0 0 128 128 0
-0.511216 -0.372369 -3.89293e-07 0 0 0 128 128 0
-0.415915 -0.342074 -3.33413e-07 0 0 0 128 128 0
-0.320614 -0.31178 -3.03611e-07 0 0 0 128 128 0
-0.225313 -0.281485 -2.468e-07 0 0 0 128 128 0
-0.130012 -0.251191 -1.8999e-07 0 0 0 128 128 0
-0.0347116 -0.220896 -1.32248e-07 0 0 0 128 128 0
0.0605892 -0.190602 -7.45058e-08 0 0 0 128 128 0
0.15589 -0.160307 -1.75205e-08 0 0 0 128 128 0
0.251191 -0.130013 4.00469e-08 0 0 0 128 128 0
0.346492 -0.099718 9.77889e-08 0 0 0 128 128 0
0.441792 -0.0694235 1.55531e-07 0 0 0 128 128 0
0.537093 -0.039129 2.14204e-07 0 0 0 128 128 0
0.632394 -0.0088344 2.70084e-07 0 0 0 128 128 0
0.727695 0.0214601 3.27826e-07 0 0 0 128 128 0
0.822996 0.0517547 3.83705e-07 0 0 0 128 128 0
0.918297 0.0820492 4.39584e-07 0 0 0 128 128 0
-0.862124 -0.588848 -6.66827e-07 0 0 0 128 128 0
-0.766823 -0.558553 -6.10948e-07 0 0 0 128 128 0
-0.671523 -0.528259 -5.55068e-07 0 0 0 128 128 0
-0.576222 -0.497964 -4.97326e-07 0 0 0 128 128 0
-0.480921 -0.46767 -4.4331e-07 0 0 0 128 128 0
-0.38562 -0.437375 -3.85568e-07 0 0 0 128 128 0
-0.290319 -0.407081 -3.29688e-07 0 0 0 128 128 0
-0.195019 -0.376786 -2.70084e-07 0 0 0 128 128 0
-0.0997178 -0.346491 -2.13273e-07 0 0 0 128 128 0
-0.00441705 -0.316197 -1.546e-07 0 0 0 128 128 0
0.0908838 -0.285902 -9.68575e-08 0 0 0 128 128 0
0.186185 -0.255608 -4.00469e-08 0 0 0 128 128 0
0.281485 -0.225313 1.76369e-08 0 0 0 128 128 0
0.376786 -0.195019 7.54371e-08 0 0 0 128 128 0
0.472087 -0.164724 1.3411e-07 0 0 0 128 128 0
0.567388 -0.13443 1.90921e-07 0 0 0 128 128 0
0.662688 -0.104135 2.47732e-07 0 0 0 128 128 0
0.757989 -0.0738406 3.03611e-07 0 0 0 128 128 0
0.85329 -0.0435461 3.63216e-07 0 0 0 128 128 0
0.948591 -0.0132516 4.17233e-07 0 0 0 128 128 0
-0.83183 -0.684149 -6.92904e-07 0 0 0 128 128 0
-0.736529 -0.653854 -6.33299e-07 0 0 0 128 128 0
-0.641228 -0.62356 -5.7742e-07 0 0 0 128 128 0
-0.545927 -0.593265 -5.25266e-07 0 0 0 128 128 0
-0.450626 -0.56297 -4.63799e-07 0 0 0 128 128 0
-0.355326 -0.532676 -4.09782e-07 0 0 0 128 128 0
-0.260025 -0.502381 -3.50177e-07 0 0 0 128 128 0
-0.164724 -0.472087 -2.90573e-07 0 0 0 128 128 0
-0.0694233 -0.441792 -2.34693e-07 0 0 0 128 128 0
0.0258775 -0.411498 -1.76951e-07 0 0 0 128 128 0
0.121178 -0.381203 -1.18278e-07 0 0 0 128 128 0
0.216479 -0.350909 -6.10016e-08 0 0 0 128 128 0
0.31178 -0.320614 -3.31784e-08 0 0 0 128 128 0
0.407081 -0.29032 2.39816e-08 0 0 0 128 128 0
0.502382 -0.260025 8.10251e-08 0 0 0 128 128 0
0.597682 -0.229731 1.38767e-07 0 0 0 128 128 0
0.692983 -0.199436 1.95578e-07 0 0 0 128 128 0
0.788284 -0.169141 2.55182e-07 0 0 0 128 128 0
0.883585 -0.138847 3.09199e-07 0 0 0 128 128 0
0.978886 -0.108552 3.65078e-07 0 0 0 128 128 0
-0.801535 -0.77945 -7.1153e-07 0 0 0 128 128 0
-0.706234 -0.749155 -6.55651e-07 0 0 0 128 128 0
-0.610934 -0.71886 -5.99772e-07 0 0 0 128 128 0
-0.515633 -0.688566 -5.43892e-07 0 0 0 128 128 0
-0.420332 -0.658271 -4.88013e-07 0 0 0 128 128 0
-0.325031 -0.627977 -4.28408e-07 0 0 0 128 128 0
-0.22973 -0.597682 -4.02331e-07 0 0 0 128 128 0
-0.13443 -0.567388 -3.44589e-07 0 0 0 128 128 0
-0.0391287 -0.537093 -2.86847e-07 0 0 0 128 128 0
0.0561721 -0.506799 -2.29105e-07 0 0 0 128 128 0
0.151473 -0.476504 -1.70432e-07 0 0 0 128 128 0
0.246774 -0.44621 -1.1269e-07 0 0 0 128 128 0
0.342074 -0.415915 -5.51809e-08 0 0 0 128 128 0
0.437375 -0.38562 1.97906e-09 0 0 0 128 128 0
0.532676 -0.355326 5.9139e-08 0 0 0 128 128 0
0.627977 -0.325031 1.15484e-07 0 0 0 128 128 0
0.723278 -0.294737 1.74157e-07 0 0 0 128 128 0
0.818578 -0.264442 2.30037e-07 0 0 0 128 128 0
0.913879 -0.234148 2.8871e-07 0 0 0 128 128 0
1.00918 -0.203853 3.46452e-07 0 0 0 128 128 0
-0.771241 -0.87475 -7.63685e-07 0 0 0 128 128 0
-0.67594 -0.844456 -7.0408e-07 0 0 0 128 128 0
-0.580639 -0.814161 -6.51926e-07 0 0 0 128 128 0
-0.485338 -0.783867 -5.96046e-07 0 0 0 128 128 0
-0.390037 -0.753572 -5.40167e-07 0 0 0 128 128 0
-0.294737 -0.723278 -4.80562e-07 0 0 0 128 128 0
-0.199436 -0.692983 -4.24683e-07 0 0 0 128 128 0
-0.104135 -0.662688 -3.65078e-07 0 0 0 128 128 0
-0.00883415 -0.632394 -3.07336e-07 0 0 0 128 128 0
0.0864666 -0.602099 -2.50526e-07 0 0 0 128 128 0
0.181767 -0.571805 -1.92784e-07 0 0 0 128 128 0
0.277068 -0.54151 -1.35042e-07 0 0 0 128 128 0
0.372369 -0.511216 -7.82311e-08 0 0 0 128 128 0
0.46767 -0.480921 -2.09548e-08 0 0 0 128 128 0
0.562971 -0.450627 3.71365e-08 0 0 0 128 128 0
0.658271 -0.420332 9.35979e-08 0 0 0 128 128 0
0.753572 -0.390038 1.50874e-07 0 0 0 128 128 0
0.848873 -0.359743 2.1141e-07 0 0 0 128 128 0
0.944174 -0.329448 2.66358e-07 0 0 0 128 128 0
1.03947 -0.299154 3.22238e-07 0 0 0 128 128 0
-0.740946 -0.970051 -7.86036e-07 0 0 0 128 128 0
-0.645645 -0.939757 -7.30157e-07 0 0 0 128 128 0
-0.550344 -0.909462 -6.74278e-07 0 0 0 128 128 0
-0.455044 -0.879167 -6.18398e-07 0 0 0 128 128 0
-0.359743 -0.848873 -5.58794e-07 0 0 0 128 128 0
-0.264442 -0.818578 -4.99189e-07 0 0 0 128 128 0
-0.169141 -0.788284 -4.45172e-07 0 0 0 128 128 0
-0.0738404 -0.757989 -3.85568e-07 0 0 0 128 128 0
0.0214604 -0.727695 -3.27826e-07 0 0 0 128 128 0
0.116761 -0.6974 -3.01749e-07 0 0 0 128 128 0
0.212062 -0.667106 -2.44007e-07 0 0 0 128 128 0
0.307363 -0.636811 -1.85333e-07 0 0 0 128 128 0
0.402664 -0.606517 -1.28057e-07 0 0 0 128 128 0
0.497964 -0.576222 -7.07805e-08 0 0 0 128 128 0
0.593265 -0.545927 -1.36788e-08 0 0 0 128 128 0
0.688566 -0.515633 4.5402e-08 0 0 0 128 128 0
0.783867 -0.485338 9.96515e-08 0 0 0 128 128 0
0.879168 -0.455044 1.58325e-07 0 0 0 128 128 0
0.974468 -0.424749 2.14204e-07 0 0 0 128 128 0
1.06977 -0.394455 2.70084e-07 0 0 0 128 128 0
-0.710652 -1.06535 -8.3819e-07 0 0 0 128 128 0
-0.615351 -1.03506 -7.52509e-07 0 0 0 128 128 0
-0.52005 -1.00476 -7.22706e-07 0 0 0 128 128 0
-0.424749 -0.974468 -6.33299e-07 0 0 0 128 128 0
-0.329448 -0.944174 -6.10948e-07 0 0 0 128 128 0
-0.234147 -0.913879 -5.51343e-07 0 0 0 128 128 0
-0.138847 -0.883585 -4.93601e-07 0 0 0 128 128 0
-0.0435458 -0.85329 -4.37722e-07 0 0 0 128 128 0
0.051755 -0.822996 -3.7998e-07 0 0 0 128 128 0
0.147056 -0.792701 -3.22238e-07 0 0 0 128 128 0
0.242357 -0.762407 -2.64496e-07 0 0 0 128 128 0
0.337657 -0.732112 -2.07685e-07 0 0 0 128 128 0
0.432958 -0.701817 -1.49943e-07 0 0 0 128 128 0
0.528259 -0.671523 -9.26666e-08 0 0 0 128 128 0
0.62356 -0.641228 -3.28291e-08 0 0 0 128 128 0
0.71886 -0.610934 2.61934e-08 0 0 0 128 128 0
0.814161 -0.580639 8.14907e-08 0 0 0 128 128 0
0.909462 -0.550345 1.35042e-07 0 0 0 128 128 0
1.00476 -0.52005 1.93715e-07 0 0 0 128 128 0
1.10006 -0.489756 2.49594e-07 0 0 0 128 128 0
-0.680357 -1.16065 -8.56817e-07 0 0 0 128 128 0
-0.585056 -1.13036 -7.97212e-07 0 0 0 128 128 0
-0.489755 -1.10006 -7.45058e-07 0 0 0 128 128 0
-0.394454 -1.06977 -6.85453e-07 0 0 0 128 128 0
-0.299154 -1.03947 -6.29574e-07 0 0 0 128 128 0
-0.203853 -1.00918 -5.7742e-07 0 0 0 128 128 0
-0.108552 -0.978885 -5.17815e-07 0 0 0 128 128 0
-0.0132513 -0.948591 -4.58211e-07 0 0 0 128 128 0
0.0820495 -0.918296 -4.00469e-07 0 0 0 128 128 0
0.17735 -0.888002 -3.42727e-07 0 0 0 128 128 0
0.272651 -0.857707 -2.86847e-07 0 0 0 128 128 0
0.367952 -0.827413 -2.28174e-07 0 0 0 128 128 0
0.463253 -0.797118 -1.71363e-07 0 0 0 128 128 0
0.558554 -0.766824 -1.13621e-07 0 0 0 128 128 0
0.653854 -0.736529 -8.56817e-08 0 0 0 128 128 0
0.749155 -0.706235 -2.65427e-08 0 0 0 128 128 0
0.844456 -0.67594 2.67755e-08 0 0 0 128 128 0
0.939757 -0.645645 8.56817e-08 0 0 0 128 128 0
1.03506 -0.615351 1.41561e-07 0 0 0 128 128 0
1.13036 -0.585056 1.96509e-07 0 0 0 128 128 0
