ply
format ascii 1.0
element vertex 400
property float x
property float y
property float z
property float nx
property float ny
property float nz
property uchar red
property uchar green
property uchar blue
end_header
-0.183661 1.40224 2.98023e-08 0 0 0 128 128 0
-0.104366 1.34131 5.96046e-08 0 0 0 128 128 0
-0.0250708 1.28038 -2.98023e-08 0 0 0 128 128 0
0.054224 1.21945 -2.98023e-08 0 0 0 128 128 0
0.133519 1.15852 0 0 0 0 128 128 0
0.212814 1.09759 2.98023e-08 0 0 0 128 128 0
0.292109 1.03666 0 0 0 0 128 128 0
0.371404 0.975735 2.98023e-08 0 0 0 128 128 0
0.450698 0.914806 -2.98023e-08 0 0 0 128 128 0
0.529993 0.853878 0 0 0 0 128 128 0
0.609288 0.792949 0 0 0 0 128 128 0
0.688583 0.73202 0 0 0 0 128 128 0
0.767878 0.671091 0 0 0 0 128 128 0
0.847173 0.610162 0 0 0 0 128 128 0
0.926468 0.549234 -5.96046e-08 0 0 0 128 128 0
1.00576 0.488305 -5.96046e-08 0 0 0 128 128 0
1.08506 0.427376 0 0 0 0 128 128 0
1.16435 0.366447 -5.96046e-08 0 0 0 128 128 0
1.24365 0.305518 0 0 0 0 128 128 0
1.32294 0.244589 -1.19209e-07 0 0 0 128 128 0
-0.24459 1.32294 2.98023e-08 0 0 0 128 128 0
-0.165295 1.26201 2.98023e-08 0 0 0 128 128 0
-0.0859997 1.20108 0 0 0 0 128 128 0
-0.00670484 1.14016 -2.98023e-08 0 0 0 128 128 0
0.0725901 1.07923 2.98023e-08 0 0 0 128 128 0
0.151885 1.0183 2.98023e-08 0 0 0 128 128 0
0.23118 0.957369 2.98023e-08 0 0 0 128 128 0
0.310475 0.89644 0 0 0 0 128 128 0
0.38977 0.835512 2.98023e-08 0 0 0 128 128 0
0.469065 0.774583 0 0 0 0 128 128 0
0.548359 0.713654 2.98023e-08 0 0 0 128 128 0
0.627654 0.652725 0 0 0 0 128 128 0
0.706949 0.591796 -2.98023e-08 0 0 0 128 128 0
0.786244 0.530867 -5.96046e-08 0 0 0 128 128 0
0.865539 0.469939 -2.98023e-08 0 0 0 128 128 0
0.944834 0.40901 2.98023e-08 0 0 0 128 128 0
1.02413 0.348081 -2.98023e-08 0 0 0 128 128 0
1.10342 0.287152 -5.96046e-08 0 0 0 128 128 0
1.18272 0.226223 0 0 0 0 128 128 0
1.26201 0.165295 -5.96046e-08 0 0 0 128 128 0
-0.305518 1.24365 0 0 0 0 128 128 0
-0.226223 1.18272 2.98023e-08 0 0 0 128 128 0
-0.146929 1.12179 2.98023e-08 0 0 0 128 128 0
-0.0676337 1.06086 2.98023e-08 0 0 0 128 128 0
0.0116612 0.999932 0 0 0 0 128 128 0
0.0909561 0.939003 2.98023e-08 0 0 0 128 128 0
0.170251 0.878074 0 0 0 0 128 128 0
0.249546 0.817145 0 0 0 0 128 128 0
0.328841 0.756217 0 0 0 0 128 128 0
0.408136 0.695288 5.96046e-08 0 0 0 128 128 0
0.487431 0.634359 -2.98023e-08 0 0 0 128 128 0
0.566725 0.57343 0 0 0 0 128 128 0
0.64602 0.512501 -2.98023e-08 0 0 0 128 128 0
0.725315 0.451573 0 0 0 0 128 128 0
0.80461 0.390644 -2.98023e-08 0 0 0 128 128 0
0.883905 0.329715 0 0 0 0 128 128 0
0.9632 0.268786 -5.96046e-08 0 0 0 128 128 0
1.04249 0.207857 -2.98023e-08 0 0 0 128 128 0
1.12179 0.146929 0 0 0 0 128 128 0
1.20108 0.0859996 -5.96046e-08 0 0 0 128 128 0
-0.366447 1.16435 4.47035e-08 0 0 0 128 128 0
-0.287152 1.10342 5.96046e-08 0 0 0 128 128 0
-0.207857 1.04249 5.96046e-08 0 0 0 128 128 0
-0.128562 0.981566 0 0 0 0 128 128 0
-0.0492676 0.920637 2.98023e-08 0 0 0 128 128 0
0.0300273 0.859708 0 0 0 0 128 128 0
0.109322 0.798779 2.98023e-08 0 0 0 128 128 0
0.188617 0.737851 2.98023e-08 0 0 0 128 128 0
0.267912 0.676922 0 0 0 0 128 128 0
0.347207 0.615993 2.98023e-08 0 0 0 128 128 0
0.426502 0.555064 0 0 0 0 128 128 0
0.505797 0.494135 -2.98023e-08 0 0 0 128 128 0
0.585092 0.433206 0 0 0 0 128 128 0
0.664386 0.372278 -2.98023e-08 0 0 0 128 128 0
0.743681 0.311349 2.98023e-08 0 0 0 128 128 0
0.822976 0.25042 0 0 0 0 128 128 0
0.902271 0.189491 -2.98023e-08 0 0 0 128 128 0
0.981566 0.128562 0 0 0 0 128 128 0
1.06086 0.0676336 -2.98023e-08 0 0 0 128 128 0
1.14016 0.00670473 -5.96046e-08 0 0 0 128 128 0
-0.427376 1.08506 5.96046e-08 0 0 0 128 128 0
-0.348081 1.02413 5.96046e-08 0 0 0 128 128 0
-0.268786 0.9632 4.47035e-08 0 0 0 128 128 0
-0.189491 0.902271 1.49012e-08 0 0 0 128 128 0
-0.110196 0.841342 1.49012e-08 0 0 0 128 128 0
-0.0309015 0.780413 -1.49012e-08 0 0 0 128 128 0
0.0483934 0.719485 1.49012e-08 0 0 0 128 128 0
0.127688 0.658556 -2.98023e-08 0 0 0 128 128 0
0.206983 0.597627 0 0 0 0 128 128 0
0.286278 0.536698 0 0 0 0 128 128 0
0.365573 0.475769 2.98023e-08 0 0 0 128 128 0
0.444868 0.41484 -5.96046e-08 0 0 0 128 128 0
0.524163 0.353912 0 0 0 0 128 128 0
0.603458 0.292983 -2.98023e-08 0 0 0 128 128 0
0.682752 0.232054 -2.98023e-08 0 0 0 128 128 0
0.762047 0.171125 -2.98023e-08 0 0 0 128 128 0
0.841342 0.110196 -5.96046e-08 0 0 0 128 128 0
0.920637 0.0492675 0 0 0 0 128 128 0
0.999932 -0.0116613 -2.98023e-08 0 0 0 128 128 0
1.07923 -0.0725901 -8.9407e-08 0 0 0 128 128 0
-0.488305 1.00576 2.98023e-08 0 0 0 128 128 0
-0.40901 0.944834 2.98023e-08 0 0 0 128 128 0
-0.329715 0.883905 -1.49012e-08 0 0 0 128 128 0
-0.25042 0.822976 0 0 0 0 128 128 0
-0.171125 0.762047 0 0 0 0 128 128 0
-0.0918304 0.701118 0 0 0 0 128 128 0
-0.0125355 0.64019 -2.98023e-08 0 0 0 128 128 0
0.0667594 0.579261 0 0 0 0 128 128 0
0.146054 0.518332 1.49012e-08 0 0 0 128 128 0
0.225349 0.457403 0 0 0 0 128 128 0
0.304644 0.396474 -1.49012e-08 0 0 0 128 128 0
0.383939 0.335546 0 0 0 0 128 128 0
0.463234 0.274617 -2.98023e-08 0 0 0 128 128 0
0.542529 0.213688 -2.98023e-08 0 0 0 128 128 0
0.621824 0.152759 -2.98023e-08 0 0 0 128 128 0
0.701119 0.0918303 -2.98023e-08 0 0 0 128 128 0
0.780413 0.0309015 -2.98023e-08 0 0 0 128 128 0
0.859708 -0.0300274 0 0 0 0 128 128 0
0.939003 -0.0909562 -2.98023e-08 0 0 0 128 128 0
1.0183 -0.151885 -5.96046e-08 0 0 0 128 128 0
-0.549234 0.926468 2.98023e-08 0 0 0 128 128 0
-0.469939 0.865539 5.96046e-08 0 0 0 128 128 0
-0.390644 0.80461 1.49012e-08 0 0 0 128 128 0
-0.311349 0.743681 2.98023e-08 0 0 0 128 128 0
-0.232054 0.682752 2.98023e-08 0 0 0 128 128 0
-0.152759 0.621824 2.98023e-08 0 0 0 128 128 0
-0.0734643 0.560895 0 0 0 0 128 128 0
0.00583059 0.499966 1.49012e-08 0 0 0 128 128 0
0.0851255 0.439037 -1.49012e-08 0 0 0 128 128 0
0.16442 0.378108 0 0 0 0 128 128 0
0.243715 0.317179 -1.49012e-08 0 0 0 128 128 0
0.32301 0.256251 -1.49012e-08 0 0 0 128 128 0
0.402305 0.195322 1.49012e-08 0 0 0 128 128 0
0.4816 0.134393 -1.49012e-08 0 0 0 128 128 0
0.560895 0.0734642 1.49012e-08 0 0 0 128 128 0
0.64019 0.0125354 -2.98023e-08 0 0 0 128 128 0
0.719485 -0.0483934 0 0 0 0 128 128 0
0.798779 -0.109322 -2.98023e-08 0 0 0 128 128 0
0.878074 -0.170251 0 0 0 0 128 128 0
0.957369 -0.23118 -2.98023e-08 0 0 0 128 128 0
-0.610162 0.847173 5.96046e-08 0 0 0 128 128 0
-0.530868 0.786244 5.96046e-08 0 0 0 128 128 0
-0.451573 0.725315 4.84288e-08 0 0 0 128 128 0
-0.372278 0.664386 3.72529e-08 0 0 0 128 128 0
-0.292983 0.603457 2.23517e-08 0 0 0 128 128 0
-0.213688 0.542529 5.21541e-08 0 0 0 128 128 0
-0.134393 0.4816 -1.49012e-08 0 0 0 128 128 0
-0.0550982 0.420671 1.49012e-08 0 0 0 128 128 0
0.0241967 0.359742 -1.49012e-08 0 0 0 128 128 0
0.103492 0.298813 0 0 0 0 128 128 0
0.182786 0.237885 -1.49012e-08 0 0 0 128 128 0
0.262081 0.176956 -1.49012e-08 0 0 0 128 128 0
0.341376 0.116027 -2.98023e-08 0 0 0 128 128 0
0.420671 0.0550981 0 0 0 0 128 128 0
0.499966 -0.00583065 -2.98023e-08 0 0 0 128 128 0
0.579261 -0.0667595 -1.49012e-08 0 0 0 128 128 0
0.658556 -0.127688 -2.98023e-08 0 0 0 128 128 0
0.737851 -0.188617 -2.98023e-08 0 0 0 128 128 0
0.817146 -0.249546 0 0 0 0 128 128 0
0.896441 -0.310475 -5.96046e-08 0 0 0 128 128 0
-0.671091 0.767878 8.3819e-09 0 0 0 128 128 0
-0.591796 0.706949 6.98492e-08 0 0 0 128 128 0
-0.512501 0.64602 4.19095e-08 0 0 0 128 128 0
-0.433207 0.585091 -1.86265e-09 0 0 0 128 128 0
-0.353912 0.524163 2.98023e-08 0 0 0 128 128 0
-0.274617 0.463234 -2.6077e-08 0 0 0 128 128 0
-0.195322 0.402305 1.86265e-08 0 0 0 128 128 0
-0.116027 0.341376 1.49012e-08 0 0 0 128 128 0
-0.0367321 0.280447 0 0 0 0 128 128 0
0.0425628 0.219519 -7.45058e-09 0 0 0 128 128 0
0.121858 0.15859 -7.45058e-09 0 0 0 128 128 0
0.201153 0.0976609 -1.49012e-08 0 0 0 128 128 0
0.280447 0.036732 7.45058e-09 0 0 0 128 128 0
0.359742 -0.0241968 0 0 0 0 128 128 0
0.439037 -0.0851256 1.49012e-08 0 0 0 128 128 0
0.518332 -0.146054 -1.49012e-08 0 0 0 128 128 0
0.597627 -0.206983 0 0 0 0 128 128 0
0.676922 -0.267912 -1.49012e-08 0 0 0 128 128 0
0.756217 -0.328841 0 0 0 0 128 128 0
0.835512 -0.38977 -2.98023e-08 0 0 0 128 128 0
-0.73202 0.688583 3.35276e-08 0 0 0 128 128 0
-0.652725 0.627654 9.31323e-08 0 0 0 128 128 0
-0.57343 0.566725 5.21541e-08 0 0 0 128 128 0
-0.494135 0.505796 2.23517e-08 0 0 0 128 128 0
-0.41484 0.444868 4.00469e-08 0 0 0 128 128 0
-0.335546 0.383939 2.65427e-08 0 0 0 128 128 0
-0.256251 0.32301 2.84053e-08 0 0 0 128 128 0
-0.176956 0.262081 0 0 0 0 128 128 0
-0.0976609 0.201152 5.58794e-09 0 0 0 128 128 0
-0.0183661 0.140224 -3.72529e-09 0 0 0 128 128 0
0.0609288 0.0792948 -3.72529e-09 0 0 0 128 128 0
0.140224 0.018366 -7.45058e-09 0 0 0 128 128 0
0.219519 -0.0425628 -2.23517e-08 0 0 0 128 128 0
0.298814 -0.103492 0 0 0 0 128 128 0
0.378108 -0.16442 -1.49012e-08 0 0 0 128 128 0
0.457403 -0.225349 0 0 0 0 128 128 0
0.536698 -0.286278 -2.23517e-08 0 0 0 128 128 0
0.615993 -0.347207 -2.23517e-08 0 0 0 128 128 0
0.695288 -0.408136 1.49012e-08 0 0 0 128 128 0
0.774583 -0.469065 -8.9407e-08 0 0 0 128 128 0
-0.792949 0.609288 1.49012e-08 0 0 0 128 128 0
-0.713654 0.548359 1.49012e-08 0 0 0 128 128 0
-0.634359 0.48743 -1.49012e-08 0 0 0 128 128 0
-0.555064 0.426502 -1.49012e-08 0 0 0 128 128 0
-0.475769 0.365573 7.45058e-09 0 0 0 128 128 0
-0.396474 0.304644 7.45058e-09 0 0 0 128 128 0
-0.31718 0.243715 -1.49012e-08 0 0 0 128 128 0
-0.237885 0.182786 4.09782e-08 0 0 0 128 128 0
-0.15859 0.121858 -1.49012e-08 0 0 0 128 128 0
-0.0792949 0.0609287 2.23517e-08 0 0 0 128 128 0
1.49686e-09 -1.08507e-07 1.86627e-08 0 0 0 128 128 0
0.0792949 -0.0609289 -5.58794e-09 0 0 0 128 128 0
0.15859 -0.121858 -1.11759e-08 0 0 0 128 128 0
0.237885 -0.182787 3.72529e-09 0 0 0 128 128 0
0.31718 -0.243715 1.49012e-08 0 0 0 128 128 0
0.396474 -0.304644 -7.45058e-09 0 0 0 128 128 0
0.475769 -0.365573 -2.23517e-08 0 0 0 128 128 0
0.555064 -0.426502 -2.98023e-08 0 0 0 128 128 0
0.634359 -0.487431 -1.49012e-08 0 0 0 128 128 0
0.713654 -0.54836 -7.45058e-08 0 0 0 128 128 0
-0.853878 0.529993 7.45058e-08 0 0 0 128 128 0
-0.774583 0.469064 8.9407e-08 0 0 0 128 128 0
-0.695288 0.408135 2.98023e-08 0 0 0 128 128 0
-0.615993 0.347207 4.47035e-08 0 0 0 128 128 0
-0.536698 0.286278 2.98023e-08 0 0 0 128 128 0
-0.457403 0.225349 5.96046e-08 0 0 0 128 128 0
-0.378108 0.16442 7.45058e-09 0 0 0 128 128 0
-0.298813 0.103491 2.98023e-08 0 0 0 128 128 0
-0.219519 0.0425626 1.49012e-08 0 0 0 128 128 0
-0.140224 -0.0183662 3.72529e-09 0 0 0 128 128 0
-0.0609288 -0.079295 0 0 0 0 128 128 0
0.0183661 -0.140224 -3.72529e-09 0 0 0 128 128 0
0.097661 -0.201153 -5.58794e-09 0 0 0 128 128 0
0.176956 -0.262081 -1.49012e-08 0 0 0 128 128 0
0.256251 -0.32301 -1.35042e-08 0 0 0 128 128 0
0.335546 -0.383939 3.3062e-08 0 0 0 128 128 0
0.414841 -0.444868 -2.79397e-09 0 0 0 128 128 0
0.494135 -0.505797 0 0 0 0 128 128 0
0.57343 -0.566725 1.49012e-08 0 0 0 128 128 0
0.652725 -0.627654 -5.58794e-08 0 0 0 128 128 0
-0.914807 0.450698 1.49012e-08 0 0 0 128 128 0
-0.835512 0.389769 1.49012e-08 0 0 0 128 128 0
-0.756217 0.328841 1.49012e-08 0 0 0 128 128 0
-0.676922 0.267912 -2.98023e-08 0 0 0 128 128 0
-0.597627 0.206983 -1.49012e-08 0 0 0 128 128 0
-0.518332 0.146054 2.98023e-08 0 0 0 128 128 0
-0.439037 0.0851254 7.45058e-08 0 0 0 128 128 0
-0.359742 0.0241966 0 0 0 0 128 128 0
-0.280447 -0.0367323 4.47035e-08 0 0 0 128 128 0
-0.201153 -0.0976611 -1.49012e-08 0 0 0 128 128 0
-0.121858 -0.15859 1.49012e-08 0 0 0 128 128 0
-0.0425627 -0.219519 2.23517e-08 0 0 0 128 128 0
0.0367321 -0.280448 7.45058e-09 0 0 0 128 128 0
0.116027 -0.341376 1.49012e-08 0 0 0 128 128 0
0.195322 -0.402305 1.86265e-08 0 0 0 128 128 0
0.274617 -0.463234 1.11759e-08 0 0 0 128 128 0
0.353912 -0.524163 0 0 0 0 128 128 0
0.433207 -0.585092 1.86265e-09 0 0 0 128 128 0
0.512502 -0.64602 2.79397e-09 0 0 0 128 128 0
0.591796 -0.706949 -5.4948e-08 0 0 0 128 128 0
-0.975735 0.371403 2.98023e-08 0 0 0 128 128 0
-0.896441 0.310475 7.45058e-08 0 0 0 128 128 0
-0.817146 0.249546 7.45058e-08 0 0 0 128 128 0
-0.737851 0.188617 4.47035e-08 0 0 0 128 128 0
-0.658556 0.127688 1.49012e-08 0 0 0 128 128 0
-0.579261 0.0667593 1.49012e-08 0 0 0 128 128 0
-0.499966 0.00583044 1.49012e-08 0 0 0 128 128 0
-0.420671 -0.0550983 0 0 0 0 128 128 0
-0.341376 -0.116027 2.98023e-08 0 0 0 128 128 0
-0.262081 -0.176956 0 0 0 0 128 128 0
-0.182786 -0.237885 0 0 0 0 128 128 0
-0.103492 -0.298814 0 0 0 0 128 128 0
-0.0241967 -0.359742 -7.45058e-09 0 0 0 128 128 0
0.0550982 -0.420671 -2.23517e-08 0 0 0 128 128 0
0.134393 -0.4816 -7.45058e-09 0 0 0 128 128 0
0.213688 -0.542529 -2.23517e-08 0 0 0 128 128 0
0.292983 -0.603458 -2.23517e-08 0 0 0 128 128 0
0.372278 -0.664387 -2.23517e-08 0 0 0 128 128 0
0.451573 -0.725315 -3.72529e-09 0 0 0 128 128 0
0.530868 -0.786244 -4.47035e-08 0 0 0 128 128 0
-1.03666 0.292109 5.96046e-08 0 0 0 128 128 0
-0.957369 0.23118 2.98023e-08 0 0 0 128 128 0
-0.878074 0.170251 2.98023e-08 0 0 0 128 128 0
-0.798779 0.109322 0 0 0 0 128 128 0
-0.719485 0.0483932 0 0 0 0 128 128 0
-0.64019 -0.0125356 2.98023e-08 0 0 0 128 128 0
-0.560895 -0.0734644 -1.49012e-08 0 0 0 128 128 0
-0.4816 -0.134393 1.49012e-08 0 0 0 128 128 0
-0.402305 -0.195322 0 0 0 0 128 128 0
-0.32301 -0.256251 1.49012e-08 0 0 0 128 128 0
-0.243715 -0.31718 -2.98023e-08 0 0 0 128 128 0
-0.16442 -0.378108 2.98023e-08 0 0 0 128 128 0
-0.0851255 -0.439037 -1.49012e-08 0 0 0 128 128 0
-0.00583059 -0.499966 1.49012e-08 0 0 0 128 128 0
0.0734643 -0.560895 -1.49012e-08 0 0 0 128 128 0
0.152759 -0.621824 1.49012e-08 0 0 0 128 128 0
0.232054 -0.682753 -7.45058e-08 0 0 0 128 128 0
0.311349 -0.743681 7.45058e-09 0 0 0 128 128 0
0.390644 -0.80461 -5.21541e-08 0 0 0 128 128 0
0.469939 -0.865539 -5.21541e-08 0 0 0 128 128 0
-1.09759 0.212814 8.9407e-08 0 0 0 128 128 0
-1.0183 0.151885 2.98023e-08 0 0 0 128 128 0
-0.939003 0.0909559 8.9407e-08 0 0 0 128 128 0
-0.859708 0.0300272 -2.98023e-08 0 0 0 128 128 0
-0.780413 -0.0309017 5.96046e-08 0 0 0 128 128 0
-0.701118 -0.0918305 0 0 0 0 128 128 0
-0.621824 -0.152759 2.98023e-08 0 0 0 128 128 0
-0.542529 -0.213688 -2.98023e-08 0 0 0 128 128 0
-0.463234 -0.274617 2.98023e-08 0 0 0 128 128 0
-0.383939 -0.335546 0 0 0 0 128 128 0
-0.304644 -0.396475 0 0 0 0 128 128 0
-0.225349 -0.457403 0 0 0 0 128 128 0
-0.146054 -0.518332 -1.49012e-08 0 0 0 128 128 0
-0.0667594 -0.579261 -1.49012e-08 0 0 0 128 128 0
0.0125355 -0.64019 -1.49012e-08 0 0 0 128 128 0
0.0918304 -0.701119 1.49012e-08 0 0 0 128 128 0
0.171125 -0.762047 -1.49012e-08 0 0 0 128 128 0
0.25042 -0.822976 1.49012e-08 0 0 0 128 128 0
0.329715 -0.883905 0 0 0 0 128 128 0
0.40901 -0.944834 -4.47035e-08 0 0 0 128 128 0
-1.15852 0.133519 2.98023e-08 0 0 0 128 128 0
-1.07923 0.0725899 2.98023e-08 0 0 0 128 128 0
-0.999932 0.011661 5.96046e-08 0 0 0 128 128 0
-0.920637 -0.0492678 0 0 0 0 128 128 0
-0.841342 -0.110197 2.98023e-08 0 0 0 128 128 0
-0.762047 -0.171125 -2.98023e-08 0 0 0 128 128 0
-0.682752 -0.232054 5.96046e-08 0 0 0 128 128 0
-0.603458 -0.292983 0 0 0 0 128 128 0
-0.524163 -0.353912 2.98023e-08 0 0 0 128 128 0
-0.444868 -0.414841 2.98023e-08 0 0 0 128 128 0
-0.365573 -0.475769 0 0 0 0 128 128 0
-0.286278 -0.536698 2.98023e-08 0 0 0 128 128 0
-0.206983 -0.597627 0 0 0 0 128 128 0
-0.127688 -0.658556 0 0 0 0 128 128 0
-0.0483934 -0.719485 2.98023e-08 0 0 0 128 128 0
0.0309016 -0.780414 -2.98023e-08 0 0 0 128 128 0
0.110196 -0.841342 -2.98023e-08 0 0 0 128 128 0
0.189491 -0.902271 0 0 0 0 128 128 0
0.268786 -0.9632 2.98023e-08 0 0 0 128 128 0
0.348081 -1.02413 -1.49012e-08 0 0 0 128 128 0
-1.21945 0.0542238 8.9407e-08 0 0 0 128 128 0
-1.14016 -0.00670499 5.96046e-08 0 0 0 128 128 0
-1.06086 -0.0676339 2.98023e-08 0 0 0 128 128 0
-0.981566 -0.128563 2.98023e-08 0 0 0 128 128 0
-0.902271 -0.189492 5.96046e-08 0 0 0 128 128 0
-0.822976 -0.25042 2.98023e-08 0 0 0 128 128 0
-0.743681 -0.311349 -2.98023e-08 0 0 0 128 128 0
-0.664386 -0.372278 2.98023e-08 0 0 0 128 128 0
-0.585091 -0.433207 2.98023e-08 0 0 0 128 128 0
-0.505797 -0.494136 2.98023e-08 0 0 0 128 128 0
-0.426502 -0.555064 5.96046e-08 0 0 0 128 128 0
-0.347207 -0.615993 0 0 0 0 128 128 0
-0.267912 -0.676922 5.96046e-08 0 0 0 128 128 0
-0.188617 -0.737851 -2.98023e-08 0 0 0 128 128 0
-0.109322 -0.79878 2.98023e-08 0 0 0 128 128 0
-0.0300273 -0.859708 -2.98023e-08 0 0 0 128 128 0
0.0492676 -0.920637 0 0 0 0 128 128 0
0.128563 -0.981566 0 0 0 0 128 128 0
0.207857 -1.04249 2.98023e-08 0 0 0 128 128 0
0.287152 -1.10342 -7.45058e-08 0 0 0 128 128 0
-1.28038 -0.0250711 5.96046e-08 0 0 0 128 128 0
-1.20108 -0.0859999 2.98023e-08 0 0 0 128 128 0
-1.12179 -0.146929 0 0 0 0 128 128 0
-1.04249 -0.207858 5.96046e-08 0 0 0 128 128 0
-0.9632 -0.268786 0 0 0 0 128 128 0
-0.883905 -0.329715 2.98023e-08 0 0 0 128 128 0
-0.80461 -0.390644 8.9407e-08 0 0 0 128 128 0
-0.725315 -0.451573 2.98023e-08 0 0 0 128 128 0
-0.64602 -0.512502 -2.98023e-08 0 0 0 128 128 0
-0.566725 -0.57343 2.98023e-08 0 0 0 128 128 0
-0.487431 -0.634359 5.96046e-08 0 0 0 128 128 0
-0.408136 -0.695288 0 0 0 0 128 128 0
-0.328841 -0.756217 0 0 0 0 128 128 0
-0.249546 -0.817146 -2.98023e-08 0 0 0 128 128 0
-0.170251 -0.878075 -2.98023e-08 0 0 0 128 128 0
-0.0909561 -0.939003 0 0 0 0 128 128 0
-0.0116612 -0.999932 -5.96046e-08 0 0 0 128 128 0
0.0676337 -1.06086 0 0 0 0 128 128 0
0.146929 -1.12179 0 0 0 0 128 128 0
0.226224 -1.18272 -8.9407e-08 0 0 0 128 128 0
-1.34131 -0.104366 0 0 0 0 128 128 0
-1.26201 -0.165295 0 0 0 0 128 128 0
-1.18272 -0.226224 0 0 0 0 128 128 0
-1.10342 -0.287153 5.96046e-08 0 0 0 128 128 0
-1.02413 -0.348081 2.98023e-08 0 0 0 128 128 0
-0.944834 -0.40901 5.96046e-08 0 0 0 128 128 0
-0.865539 -0.469939 0 0 0 0 128 128 0
-0.786244 -0.530868 2.98023e-08 0 0 0 128 128 0
-0.706949 -0.591797 8.9407e-08 0 0 0 128 128 0
-0.627654 -0.652725 2.98023e-08 0 0 0 128 128 0
-0.548359 -0.713654 -5.96046e-08 0 0 0 128 128 0
-0.469064 -0.774583 2.98023e-08 0 0 0 128 128 0
-0.38977 -0.835512 2.98023e-08 0 0 0 128 128 0
-0.310475 -0.896441 2.98023e-08 0 0 0 128 128 0
-0.23118 -0.957369 -2.98023e-08 0 0 0 128 128 0
-0.151885 -1.0183 0 0 0 0 128 128 0
-0.0725901 -1.07923 5.96046e-08 0 0 0 128 128 0
0.00670488 -1.14016 -2.98023e-08 0 0 0 128 128 0
0.0859998 -1.20108 2.98023e-08 0 0 0 128 128 0
0.165295 -1.26201 -2.98023e-08 0 0 0 128 128 0
